ply
format ascii 1.0
element vertex 1440
property float x
property float y
property float z
property uchar red
property uchar green
property uchar blue
end_header
7.6583 9.3430 2.9001 60 60 60
13.0809 10.1712 0.2015 60 60 60
11.5595 10.1696 3.0934 60 60 60
8.1003 9.6115 1.5398 60 60 60
9.5784 10.1327 3.6490 60 60 60
6.9937 4.7776 -0.0699 60 60 60
5.8019 4.1810 -0.0571 60 60 60
9.1727 9.7025 1.4904 60 60 60
7.4726 5.7938 -0.0941 60 60 60
13.0184 -8.8471 0.2076 60 60 60
6.9507 9.3096 0.8166 60 60 60
6.6914 9.3271 3.6585 60 60 60
7.5455 9.8123 3.7832 60 60 60
14.7182 9.0563 0.0765 60 60 60
10.9867 10.0219 2.0677 60 60 60
9.4804 9.7414 1.1756 60 60 60
11.4809 10.4977 4.1711 60 60 60
6.6443 6.6118 -0.0526 60 60 60
11.6615 10.0688 0.6899 60 60 60
6.9520 9.2667 0.0359 60 60 60
10.7584 -5.7986 0.0347 60 60 60
23.3406 15.2440 0.2215 60 60 60
9.2411 7.4310 0.9608 60 60 60
9.1444 -5.3056 0.0685 60 60 60
7.5563 9.5207 3.1872 60 60 60
7.1778 9.4127 2.1074 60 60 60
7.1213 9.3336 0.8009 60 60 60
10.9875 10.2604 3.7542 60 60 60
6.5400 4.0182 -0.0458 60 60 60
12.3200 8.6802 0.0032 60 60 60
5.8870 2.7476 -0.0108 60 60 60
8.1985 -3.9939 -0.0744 60 60 60
8.3866 9.5922 2.0916 60 60 60
9.2439 10.0848 3.6234 60 60 60
6.2752 4.5810 -0.0647 60 60 60
8.5778 9.6779 2.6643 60 60 60
10.8081 9.9316 0.7621 60 60 60
12.0620 -6.3100 0.1124 60 60 60
8.7377 5.4861 -0.0744 60 60 60
9.1843 9.9207 3.2950 60 60 60
6.5011 8.1663 -0.0181 60 60 60
6.0416 3.6647 -0.0358 60 60 60
6.4757 5.8562 -0.1159 60 60 60
10.3833 -6.1062 0.0697 60 60 60
7.6930 9.5116 1.5583 60 60 60
10.9556 7.2892 -0.0499 60 60 60
7.8326 4.9309 -0.0652 60 60 60
6.1074 3.4885 -0.0272 60 60 60
8.5661 7.7343 -0.0183 60 60 60
7.5634 9.4462 1.5641 60 60 60
11.1262 9.9961 1.0695 60 60 60
6.6371 3.7912 -0.0395 60 60 60
7.5633 9.4889 2.3713 60 60 60
5.9176 6.5097 -0.1164 60 60 60
18.3005 11.2513 0.1063 60 60 60
6.6276 9.2744 3.1300 60 60 60
14.6895 9.3821 0.0678 60 60 60
6.7984 9.2296 1.5989 60 60 60
8.2427 9.5893 1.2533 60 60 60
8.9539 9.6667 1.5004 60 60 60
6.1756 1.7377 0.0131 60 60 60
7.3868 9.4222 1.5722 60 60 60
6.0952 3.5238 -0.0290 60 60 60
8.8593 5.1689 -0.0683 60 60 60
9.3412 7.3790 0.4308 60 60 60
8.1296 8.7925 -0.0646 60 60 60
6.0611 3.6340 -0.0363 60 60 60
8.6307 5.7520 -0.0800 60 60 60
6.5445 9.2570 3.1257 60 60 60
10.3869 7.8658 2.8589 60 60 60
8.2852 9.5742 2.0927 60 60 60
6.1091 1.9879 0.0108 60 60 60
11.5772 10.4981 3.8231 60 60 60
8.4674 -4.7447 0.0116 60 60 60
7.6484 9.5368 3.1922 60 60 60
12.5488 7.9309 0.0139 60 60 60
11.3284 10.0055 0.3815 60 60 60
8.0104 4.4609 -0.0533 60 60 60
5.8531 2.8048 -0.0085 60 60 60
7.0439 9.3097 1.0685 60 60 60
6.4718 9.1349 0.8665 60 60 60
9.2844 9.7206 1.4853 60 60 60
17.9292 -10.7042 1.0239 60 60 60
8.0106 9.6055 1.5439 60 60 60
9.0044 9.6149 0.0292 60 60 60
6.6603 9.3042 3.3920 60 60 60
11.7245 10.0541 -0.0053 60 60 60
6.1545 3.3888 -0.0256 60 60 60
7.1888 6.4470 -0.1254 60 60 60
9.7160 9.7783 1.1605 60 60 60
10.5962 -6.1657 0.0348 60 60 60
12.9846 10.2217 2.0507 60 60 60
10.1138 9.8045 0.5071 60 60 60
6.7908 6.6261 -0.0797 60 60 60
6.8655 9.3786 2.3701 60 60 60
6.7748 9.1737 0.5843 60 60 60
5.9985 7.0135 -0.0048 60 60 60
15.1555 -9.9139 0.3452 60 60 60
6.9528 7.5394 -0.0022 60 60 60
6.1366 6.4025 -0.1381 60 60 60
8.9674 -4.4920 -0.0608 60 60 60
7.1470 7.2476 0.0045 60 60 60
12.0211 10.1468 1.0111 60 60 60
7.1237 9.3793 1.5843 60 60 60
9.9114 9.8382 1.7653 60 60 60
18.2105 12.3688 0.0879 60 60 60
6.4931 4.1324 -0.0503 60 60 60
6.9180 9.3233 1.3366 60 60 60
7.2980 9.4075 1.5763 60 60 60
9.9159 5.7029 -0.0557 60 60 60
6.0915 2.1204 0.0027 60 60 60
9.9617 5.5846 -0.0548 60 60 60
9.4413 6.9873 -0.0817 60 60 60
9.3383 -5.0916 0.0529 60 60 60
11.1295 10.0979 3.0714 60 60 60
9.8406 8.0938 3.4184 60 60 60
8.5032 9.5412 0.3832 60 60 60
8.9025 5.0650 -0.0674 60 60 60
8.4180 9.7702 3.2470 60 60 60
18.8325 -11.5736 0.4843 60 60 60
6.9616 4.8681 -0.0748 60 60 60
9.1325 9.5635 2.6626 60 60 60
9.2146 6.9644 -0.0445 60 60 60
9.8994 5.7653 -0.0575 60 60 60
6.3742 9.1106 0.6274 60 60 60
10.2454 9.8788 1.4413 60 60 60
9.1600 9.5279 2.0760 60 60 60
6.6891 7.9370 -0.0145 60 60 60
6.3004 8.3847 -0.0198 60 60 60
19.1192 -10.7413 0.4780 60 60 60
8.6424 10.0162 3.8832 60 60 60
6.8233 5.1635 -0.0854 60 60 60
17.7760 -11.3056 1.0292 60 60 60
7.9987 9.5386 2.0965 60 60 60
6.5812 8.0820 -0.0181 60 60 60
7.6995 5.1972 -0.0679 60 60 60
23.3314 15.4272 0.2203 60 60 60
7.8521 4.8829 -0.0640 60 60 60
7.3217 6.9468 0.0133 60 60 60
7.9357 9.5460 2.3726 60 60 60
8.0716 9.5907 2.6525 60 60 60
6.3009 6.1560 -0.1290 60 60 60
8.1824 8.6511 -0.0569 60 60 60
9.7922 9.8164 1.7685 60 60 60
6.4194 4.2779 -0.0533 60 60 60
12.5848 7.8603 0.0130 60 60 60
9.2609 9.8034 2.9843 60 60 60
10.7286 9.8938 0.1178 60 60 60
9.3067 9.5637 2.3698 60 60 60
10.5849 10.3135 3.7341 60 60 60
14.6833 9.6157 0.0599 60 60 60
6.4385 9.1860 2.1137 60 60 60
10.4042 7.7862 2.8534 60 60 60
13.1554 -8.5183 0.2079 60 60 60
7.9932 9.5133 0.9920 60 60 60
6.3671 6.6718 -0.0144 60 60 60
6.6344 5.5536 -0.1021 60 60 60
7.8794 9.5627 1.2756 60 60 60
6.8457 5.1230 -0.0845 60 60 60
8.1748 9.5243 0.9781 60 60 60
10.0301 -6.3389 0.1046 60 60 60
7.6001 9.3850 0.2159 60 60 60
20.0951 14.5488 0.4405 60 60 60
17.8435 -11.0666 1.0268 60 60 60
10.1592 9.8769 1.7585 60 60 60
9.0017 6.9449 -0.0099 60 60 60
9.2137 9.4763 2.0732 60 60 60
5.8369 2.8713 -0.0131 60 60 60
8.0654 7.6431 2.7515 60 60 60
7.4305 6.9040 0.0010 60 60 60
7.5118 5.6922 -0.0892 60 60 60
18.0174 -11.6014 1.9782 60 60 60
8.3870 7.6106 3.0085 60 60 60
11.7775 10.0806 0.3344 60 60 60
7.0086 9.3889 2.1099 60 60 60
8.1673 9.6043 2.6544 60 60 60
10.3825 10.2164 3.7090 60 60 60
7.3691 6.0448 -0.1060 60 60 60
6.2159 3.2142 -0.0183 60 60 60
10.0470 9.5523 -0.0956 60 60 60
9.1792 7.4062 0.4480 60 60 60
7.3253 3.9802 -0.0481 60 60 60
8.6076 9.5596 0.3710 60 60 60
15.6231 -8.6732 0.3403 60 60 60
5.9367 7.0990 -0.0080 60 60 60
8.8478 9.6065 0.6342 60 60 60
8.1550 8.7203 -0.0604 60 60 60
8.7518 6.9706 0.0260 60 60 60
9.1790 -5.2589 0.0665 60 60 60
11.5948 -7.4321 0.1117 60 60 60
7.2424 9.4578 2.6361 60 60 60
9.9526 9.7636 0.2125 60 60 60
10.9912 10.3861 3.7697 60 60 60
9.3349 9.6623 -0.0154 60 60 60
9.1354 9.7680 2.9774 60 60 60
8.4968 7.9343 -0.0279 60 60 60
6.3054 4.5001 -0.0594 60 60 60
18.2940 11.9756 0.0902 60 60 60
13.3203 -8.1102 0.2079 60 60 60
13.5444 -7.5421 0.2070 60 60 60
11.0417 10.0080 1.4048 60 60 60
6.6546 5.5072 -0.0994 60 60 60
8.6794 7.1505 0.0204 60 60 60
6.4446 4.2451 -0.0546 60 60 60
9.5945 9.7582 1.1683 60 60 60
9.3943 9.9403 3.3063 60 60 60
10.8625 10.2281 4.0817 60 60 60
7.7920 5.0208 -0.0667 60 60 60
5.8479 5.3840 -0.1020 60 60 60
6.3454 8.3486 -0.0210 60 60 60
7.5666 9.3273 2.8966 60 60 60
7.9394 9.8987 3.8201 60 60 60
8.5774 9.5460 0.0869 60 60 60
9.8349 -5.1127 -0.0322 60 60 60
11.2666 10.0183 1.0604 60 60 60
8.1288 9.5778 2.3735 60 60 60
9.4033 9.7422 1.4799 60 60 60
10.0572 7.7531 0.0425 60 60 60
6.6276 9.2367 2.3635 60 60 60
17.7803 -11.5825 1.5023 60 60 60
8.3178 6.5938 -0.1107 60 60 60
8.6068 -4.5268 0.0048 60 60 60
6.3679 4.3930 -0.0580 60 60 60
12.7804 10.1845 1.6870 60 60 60
8.6373 9.5725 0.6550 60 60 60
9.2327 7.3544 0.7049 60 60 60
10.7300 -5.8582 0.0351 60 60 60
8.3712 9.5102 0.1147 60 60 60
5.9255 3.9449 -0.0493 60 60 60
6.5623 5.6767 -0.1059 60 60 60
5.7372 4.3224 -0.0653 60 60 60
10.0718 9.8762 2.0752 60 60 60
11.2742 9.9760 0.0510 60 60 60
18.1897 12.5003 0.0864 60 60 60
6.7415 3.4376 -0.0218 60 60 60
8.1511 9.5859 1.2589 60 60 60
23.3500 15.0623 0.2227 60 60 60
9.3746 9.9829 3.9296 60 60 60
6.6914 9.1582 0.5935 60 60 60
12.6179 7.7821 0.0127 60 60 60
11.7612 10.1200 1.3719 60 60 60
5.8435 2.8371 -0.0102 60 60 60
6.6533 3.7559 -0.0389 60 60 60
10.8143 9.9863 1.7409 60 60 60
9.6010 9.7132 0.2543 60 60 60
8.1069 7.5101 1.5332 60 60 60
9.9521 -6.4428 0.1083 60 60 60
10.6335 9.9394 1.4235 60 60 60
9.6992 6.3100 -0.0664 60 60 60
9.8349 9.7973 1.1529 60 60 60
18.2009 12.9791 0.0736 60 60 60
10.2395 -6.0918 0.0915 60 60 60
8.0039 9.4600 0.4407 60 60 60
7.6370 9.8229 3.7901 60 60 60
8.2597 9.5222 0.9719 60 60 60
12.7434 7.5713 0.0072 60 60 60
19.8727 15.4453 0.4446 60 60 60
8.6360 7.4500 -0.0012 60 60 60
18.2215 13.6297 0.0553 60 60 60
14.9302 -10.4977 0.3464 60 60 60
7.7134 5.1497 -0.0653 60 60 60
6.2846 3.0043 -0.0100 60 60 60
12.8711 10.2206 2.4162 60 60 60
6.1569 4.8055 -0.0728 60 60 60
8.6313 9.6561 2.3762 60 60 60
8.2961 7.6066 3.0034 60 60 60
8.7190 7.1044 0.0187 60 60 60
9.3324 7.2833 0.4374 60 60 60
7.2591 6.2974 -0.1183 60 60 60
9.8628 5.8908 -0.0607 60 60 60
12.2237 9.2483 -0.0165 60 60 60
8.0623 7.5704 2.5010 60 60 60
10.8204 -5.6801 0.0328 60 60 60
13.2493 10.1926 0.1837 60 60 60
18.0956 -9.8660 0.5589 60 60 60
7.8307 9.3886 -0.0894 60 60 60
9.0665 9.6444 0.6123 60 60 60
8.8415 9.8496 3.2728 60 60 60
6.1412 1.8621 0.0128 60 60 60
18.0951 -11.2227 1.9689 60 60 60
8.3813 9.6349 1.5268 60 60 60
9.4288 9.6802 2.6755 60 60 60
6.5183 9.1578 1.3628 60 60 60
6.5538 9.1479 0.8590 60 60 60
6.1086 2.0578 0.0039 60 60 60
6.2012 1.6453 0.0127 60 60 60
7.2720 4.0508 -0.0437 60 60 60
8.9505 9.7071 2.3783 60 60 60
10.9888 10.2409 4.0941 60 60 60
12.0775 10.1756 1.3574 60 60 60
11.2755 10.1264 3.0792 60 60 60
6.0226 2.3383 -0.0001 60 60 60
5.7923 2.9982 -0.0184 60 60 60
6.2849 3.0466 -0.0154 60 60 60
7.0142 4.7353 -0.0689 60 60 60
6.0855 6.4939 -0.1438 60 60 60
9.1364 9.5915 2.3715 60 60 60
7.2963 6.8415 0.0298 60 60 60
9.0500 10.0852 3.6126 60 60 60
11.3270 10.0540 1.3918 60 60 60
6.5774 9.2468 2.6166 60 60 60
20.3332 14.8690 0.9894 60 60 60
7.3880 9.3818 0.7754 60 60 60
8.2674 9.6190 2.6565 60 60 60
7.1609 6.4930 -0.1265 60 60 60
9.8944 -4.9423 -0.0300 60 60 60
8.5369 9.6965 1.8054 60 60 60
11.6144 10.0979 1.3786 60 60 60
10.9980 9.9352 0.0848 60 60 60
7.8380 6.7641 -0.0491 60 60 60
10.0725 -6.2881 0.1021 60 60 60
20.4414 14.4559 0.4190 60 60 60
8.2300 9.5945 2.3741 60 60 60
8.7821 9.5709 0.0601 60 60 60
19.9747 15.6830 1.0084 60 60 60
6.8973 9.4020 2.6302 60 60 60
7.6684 5.2374 -0.0663 60 60 60
7.4091 9.3866 1.0394 60 60 60
6.6114 5.5936 -0.1034 60 60 60
7.3804 9.8068 3.7730 60 60 60
7.9311 4.6986 -0.0608 60 60 60
7.6933 9.5328 2.6449 60 60 60
13.3485 -8.0268 0.2084 60 60 60
9.0612 9.7274 2.3793 60 60 60
6.4544 4.2035 -0.0510 60 60 60
8.4345 9.6106 1.2414 60 60 60
8.2989 9.7326 3.2382 60 60 60
7.5546 5.5967 -0.0859 60 60 60
8.6753 5.6451 -0.0779 60 60 60
7.9405 9.4668 0.7227 60 60 60
9.0146 9.6920 2.0847 60 60 60
11.9734 10.1225 0.6632 60 60 60
6.4708 4.1656 -0.0496 60 60 60
15.2618 -9.6207 0.3448 60 60 60
10.6756 9.9112 0.7732 60 60 60
8.0712 7.5083 2.2563 60 60 60
11.6325 10.5280 4.1882 60 60 60
8.6714 9.5943 0.9385 60 60 60
8.7965 9.6559 2.0870 60 60 60
5.9673 7.0556 -0.0062 60 60 60
19.1689 -10.6252 0.4764 60 60 60
7.1621 9.3430 1.3219 60 60 60
20.5775 14.3824 0.4109 60 60 60
6.8863 7.6351 -0.0044 60 60 60
8.7364 9.5129 2.9425 60 60 60
6.0472 2.2784 -0.0009 60 60 60
6.2023 3.2478 -0.0191 60 60 60
23.4026 14.7192 0.2226 60 60 60
7.2047 9.4271 2.3702 60 60 60
9.7074 9.8147 2.0784 60 60 60
11.0806 9.9743 0.7391 60 60 60
13.0041 10.1837 0.9479 60 60 60
6.1674 1.7686 0.0130 60 60 60
11.7127 10.1449 2.0628 60 60 60
9.1572 7.5451 0.7039 60 60 60
7.5513 6.7906 -0.0052 60 60 60
7.0555 9.3698 1.8468 60 60 60
17.8601 -10.9387 1.0264 60 60 60
5.7751 4.2563 -0.0632 60 60 60
6.0761 3.5988 -0.0350 60 60 60
6.7877 7.7829 -0.0088 60 60 60
9.7220 9.8803 3.0050 60 60 60
8.9608 10.0655 3.9123 60 60 60
10.6625 -5.9737 0.0376 60 60 60
10.0079 7.8992 1.4463 60 60 60
7.1191 7.3025 0.0020 60 60 60
7.5865 9.4112 1.0255 60 60 60
17.9003 -10.9565 1.4929 60 60 60
10.5327 7.8743 -0.0312 60 60 60
8.1726 9.4786 0.1409 60 60 60
5.9601 2.5266 -0.0038 60 60 60
11.4166 10.1480 3.0862 60 60 60
13.1392 10.1976 0.5661 60 60 60
12.7065 7.6467 0.0082 60 60 60
6.2607 3.1162 -0.0176 60 60 60
12.9114 -9.0942 0.2075 60 60 60
7.3268 9.4667 2.6373 60 60 60
11.7087 10.0901 1.0316 60 60 60
6.0572 4.9964 -0.0815 60 60 60
12.9554 10.1652 0.5821 60 60 60
6.1947 3.2853 -0.0222 60 60 60
7.1973 9.4614 3.1688 60 60 60
6.1616 3.3492 -0.0220 60 60 60
8.9095 6.9458 0.0041 60 60 60
5.8485 6.4964 -0.1021 60 60 60
18.2091 13.1371 0.0690 60 60 60
9.8731 9.7697 0.5314 60 60 60
7.7147 9.6964 3.7747 60 60 60
18.2213 13.7969 0.0510 60 60 60
11.8170 10.0980 0.6765 60 60 60
9.9918 -6.3902 0.1064 60 60 60
6.9434 4.9093 -0.0763 60 60 60
8.0697 7.3162 2.4832 60 60 60
11.9877 -6.5258 0.1111 60 60 60
9.2561 9.6596 0.2952 60 60 60
11.5699 10.0247 0.0142 60 60 60
6.4052 5.9862 -0.1223 60 60 60
8.3110 8.3997 -0.0485 60 60 60
10.2018 9.8556 1.1293 60 60 60
20.6077 14.7289 0.9763 60 60 60
8.0673 9.5885 1.2639 60 60 60
7.9634 4.6034 -0.0578 60 60 60
12.4901 10.1480 2.0537 60 60 60
7.3218 9.4169 1.8389 60 60 60
8.9612 9.6312 0.6226 60 60 60
8.4239 9.9649 3.8609 60 60 60
8.3319 9.5273 0.6848 60 60 60
7.2694 9.3452 0.5231 60 60 60
7.0126 9.3109 0.5508 60 60 60
18.1058 -10.1305 1.4798 60 60 60
6.6214 9.1725 2.8643 60 60 60
8.0696 7.6816 2.2657 60 60 60
9.5176 9.7149 0.5672 60 60 60
7.2176 6.4023 -0.1246 60 60 60
11.1494 6.7296 -0.0420 60 60 60
11.8854 10.3396 3.4722 60 60 60
11.7843 -7.0139 0.1112 60 60 60
5.7807 3.0312 -0.0200 60 60 60
10.0773 9.7887 0.1971 60 60 60
10.4911 10.1917 4.0461 60 60 60
15.6607 -8.5778 0.3396 60 60 60
7.7479 9.5160 2.3718 60 60 60
8.5249 9.7937 3.2538 60 60 60
7.9745 9.5777 1.2697 60 60 60
14.6830 9.8573 0.0508 60 60 60
9.7499 6.1909 -0.0652 60 60 60
14.6648 10.9702 0.0089 60 60 60
5.9207 2.6162 -0.0034 60 60 60
8.0877 7.5435 2.0174 60 60 60
10.7248 7.5650 -0.0361 60 60 60
12.0496 10.1788 2.7593 60 60 60
10.9896 7.2283 -0.0508 60 60 60
6.0022 2.4003 -0.0012 60 60 60
9.7729 6.0536 -0.0583 60 60 60
7.4300 5.8915 -0.0982 60 60 60
6.2406 6.7538 -0.0053 60 60 60
21.0775 14.3959 0.3782 60 60 60
10.2810 8.8242 -0.0680 60 60 60
6.6359 9.1224 0.0914 60 60 60
12.3589 10.0966 0.9902 60 60 60
7.1859 7.2085 0.0032 60 60 60
7.7869 9.5452 2.6465 60 60 60
7.7179 9.5249 1.8282 60 60 60
9.9143 9.7453 -0.0947 60 60 60
9.5518 9.7301 0.8667 60 60 60
11.1481 10.3063 3.7706 60 60 60
10.2981 7.9006 2.5706 60 60 60
11.0361 7.0838 -0.0480 60 60 60
8.7596 5.4342 -0.0736 60 60 60
9.9074 7.8614 0.6161 60 60 60
7.4172 9.3565 0.2394 60 60 60
8.0677 7.7527 2.5142 60 60 60
8.2944 6.6496 -0.1127 60 60 60
7.3158 7.0240 0.0051 60 60 60
7.4448 9.4554 2.1038 60 60 60
8.0154 9.5868 1.8198 60 60 60
9.4409 9.6747 -0.0296 60 60 60
9.5413 9.7198 2.3784 60 60 60
9.4311 -5.0128 0.0433 60 60 60
7.5680 9.4069 0.7585 60 60 60
8.7342 9.8303 3.2663 60 60 60
11.1251 10.0444 2.0667 60 60 60
9.1697 9.7436 2.3800 60 60 60
10.1590 -6.1921 0.0963 60 60 60
11.9405 -6.6704 0.1097 60 60 60
8.9889 9.6406 0.9128 60 60 60
9.2454 7.3797 0.4419 60 60 60
11.5938 10.1290 2.4046 60 60 60
7.7733 9.5308 1.2825 60 60 60
10.7129 9.9743 2.0697 60 60 60
9.8643 -5.0611 -0.0334 60 60 60
6.7137 7.8749 -0.0099 60 60 60
10.6374 -6.0333 0.0375 60 60 60
10.6027 7.7468 -0.0318 60 60 60
5.9575 3.8753 -0.0465 60 60 60
8.8766 5.1131 -0.0667 60 60 60
18.2188 14.1242 0.0426 60 60 60
8.7837 9.7086 2.6690 60 60 60
8.1018 9.4735 0.4297 60 60 60
11.7876 10.5598 4.2060 60 60 60
8.4294 9.4643 2.9299 60 60 60
20.4622 14.7958 0.9832 60 60 60
6.6176 8.0320 -0.0167 60 60 60
6.4133 9.1256 1.1201 60 60 60
6.5679 9.1893 1.8592 60 60 60
7.1193 9.4185 2.3703 60 60 60
11.0751 6.8523 -0.0389 60 60 60
5.8630 5.3383 -0.0973 60 60 60
11.7211 10.5195 3.8356 60 60 60
8.5318 6.0297 -0.0896 60 60 60
6.4622 9.2433 3.1219 60 60 60
8.9669 4.9127 -0.0666 60 60 60
12.0444 -6.3850 0.1110 60 60 60
6.4523 9.1261 0.6188 60 60 60
6.4744 9.0948 0.1141 60 60 60
8.8123 5.2689 -0.0685 60 60 60
7.1455 9.3899 1.8442 60 60 60
5.8592 4.0825 -0.0550 60 60 60
7.1110 9.7598 3.7509 60 60 60
12.3450 10.1367 2.0549 60 60 60
10.0312 9.6467 -0.1013 60 60 60
6.4145 9.2183 2.6140 60 60 60
7.4192 9.4864 2.6394 60 60 60
6.9216 7.5897 -0.0039 60 60 60
10.2175 7.9210 2.5699 60 60 60
8.6290 9.4918 2.9377 60 60 60
9.3292 9.7491 1.7815 60 60 60
6.0592 6.9275 -0.0016 60 60 60
7.6395 9.7337 3.4937 60 60 60
16.0993 -1.1388 0.4275 255 200 100
23.5703 -10.9752 4.2769 255 200 100
15.5412 -4.0796 1.5057 255 200 100
12.9688 6.8593 0.0110 255 200 100
22.7871 1.1179 1.8526 255 200 100
34.7865 -1.6492 5.8007 255 200 100
16.2771 -0.2804 1.8449 255 200 100
10.4142 -1.8797 0.0354 255 200 100
13.4898 4.2516 0.0347 255 200 100
9.4462 -1.6848 0.0125 255 200 100
6.7939 -0.2095 0.0273 255 200 100
9.9158 -4.8867 -0.0297 255 200 100
7.3063 0.1416 0.0303 255 200 100
18.3379 6.0982 0.1943 255 200 100
28.8639 16.9591 4.4068 255 200 100
6.7628 1.0599 0.0168 255 200 100
26.0588 -5.4942 3.6554 255 200 100
9.4713 -0.6759 0.0332 255 200 100
34.1404 13.8751 4.5382 255 200 100
13.4302 0.4507 0.0964 255 200 100
34.1937 -2.7552 4.1792 255 200 100
6.7728 -1.0691 0.0064 255 200 100
24.8106 -6.2404 4.1654 255 200 100
7.7277 2.3297 0.0020 255 200 100
34.5973 -1.6522 6.5787 255 200 100
24.3689 -7.8904 4.1882 255 200 100
23.3237 12.1960 0.2505 255 200 100
8.4427 -3.0010 -0.0442 255 200 100
16.3016 -0.8185 2.2003 255 200 100
23.7062 -9.6333 0.7598 255 200 100
7.0135 2.4924 0.0048 255 200 100
25.5243 -3.3399 4.7412 255 200 100
14.5183 -4.3022 0.2028 255 200 100
15.4144 1.3618 0.1577 255 200 100
7.2056 1.6752 0.0119 255 200 100
7.8500 -1.6509 -0.0010 255 200 100
21.4421 2.1293 1.3779 255 200 100
8.3756 2.8404 0.0002 255 200 100
22.0060 7.3368 1.4068 255 200 100
10.1342 5.1178 -0.0519 255 200 100
10.2679 4.6375 -0.0448 255 200 100
13.5159 3.4615 0.0505 255 200 100
7.8724 0.9653 0.0287 255 200 100
9.4712 0.5167 0.0387 255 200 100
24.9110 -9.8155 1.3045 255 200 100
7.7875 -2.2861 -0.0246 255 200 100
18.4593 10.2355 0.1144 255 200 100
22.2932 5.7058 0.3575 255 200 100
9.4286 1.4673 0.0325 255 200 100
24.4694 -7.3294 5.3370 255 200 100
13.5288 2.3835 0.0682 255 200 100
14.8682 -2.9413 0.1913 255 200 100
11.3625 5.9530 -0.0279 255 200 100
6.7642 1.0951 0.0149 255 200 100
13.4763 0.8898 0.0890 255 200 100
10.4727 1.9295 0.0349 255 200 100
6.7986 -0.2777 0.0249 255 200 100
8.4588 -2.8572 -0.0374 255 200 100
32.2691 -2.0760 5.5092 255 200 100
8.5857 -1.5495 0.0066 255 200 100
25.6714 -6.9273 3.6657 255 200 100
16.1978 -6.9781 0.3316 255 200 100
15.4815 0.0123 0.1503 255 200 100
10.2537 -3.3085 0.0067 255 200 100
34.1201 -1.8006 4.9447 255 200 100
9.4685 -1.1290 0.0245 255 200 100
17.8753 1.9829 0.2681 255 200 100
9.4025 2.2888 0.0112 255 200 100
15.0075 -2.1276 0.1878 255 200 100
6.3711 0.0616 0.0227 255 200 100
10.4943 2.8805 0.0011 255 200 100
24.7259 -10.3841 1.9187 255 200 100
10.4975 1.2483 0.0439 255 200 100
18.3440 9.4982 0.1392 255 200 100
10.1530 5.0588 -0.0513 255 200 100
7.2961 -0.9778 0.0122 255 200 100
16.1423 -0.7906 0.7829 255 200 100
7.7783 1.9519 0.0123 255 200 100
28.9575 16.7970 4.4015 255 200 100
12.8668 7.4607 -0.0031 255 200 100
21.5679 0.9585 0.4106 255 200 100
15.5054 -4.8068 0.7976 255 200 100
25.0889 -9.0809 3.7002 255 200 100
29.9308 16.7106 4.4488 255 200 100
11.4770 5.4639 -0.0192 255 200 100
19.9669 -7.7907 0.4606 255 200 100
6.3743 2.7701 -0.0067 255 200 100
17.2832 -2.7672 0.3034 255 200 100
23.2829 11.8369 0.2561 255 200 100
6.7996 -0.0050 0.0272 255 200 100
7.8903 0.1515 0.0354 255 200 100
21.6498 1.4447 0.4057 255 200 100
15.3785 -0.3234 0.1610 255 200 100
9.4682 -0.3295 0.0382 255 200 100
15.8792 -2.0951 1.4942 255 200 100
10.3526 -2.5032 0.0249 255 200 100
23.0115 9.9483 0.2880 255 200 100
12.6664 -4.3243 0.1174 255 200 100
16.9573 -4.1729 0.3154 255 200 100
17.8007 1.2817 0.2761 255 200 100
7.7484 -2.6305 -0.0408 255 200 100
11.4791 -3.2713 0.0518 255 200 100
8.1886 3.8923 -0.0384 255 200 100
21.5067 0.4813 0.4138 255 200 100
9.3669 -2.9385 -0.0295 255 200 100
7.3661 3.8036 -0.0384 255 200 100
7.6843 -2.9743 -0.0543 255 200 100
18.4331 -9.0052 1.0057 255 200 100
29.4972 -0.8900 4.5096 255 200 100
25.3259 -8.3720 3.6892 255 200 100
24.4050 -7.7580 4.1858 255 200 100
15.6294 -3.4663 1.1521 255 200 100
10.4661 -0.3151 0.0558 255 200 100
25.4089 -7.7719 1.8818 255 200 100
9.3964 2.3924 0.0082 255 200 100
10.3213 -2.7891 0.0188 255 200 100
8.4326 2.6153 0.0013 255 200 100
15.2126 7.6921 0.0687 255 200 100
6.3469 0.4085 0.0277 255 200 100
7.6610 2.5721 0.0017 255 200 100
23.8161 -9.9784 4.8263 255 200 100
10.3654 -2.4466 0.0248 255 200 100
18.3833 8.2457 0.1585 255 200 100
8.4648 2.3805 0.0073 255 200 100
15.8364 -2.2625 1.1461 255 200 100
20.8587 2.9091 0.4614 255 200 100
10.4944 0.1306 0.0524 255 200 100
25.0506 -9.3825 3.1031 255 200 100
15.9666 -2.5592 2.2008 255 200 100
19.8519 -8.2573 0.4627 255 200 100
22.4536 4.2890 0.8595 255 200 100
6.5767 2.1265 0.0013 255 200 100
22.8218 8.8150 0.3078 255 200 100
24.8371 -10.1076 1.3081 255 200 100
21.6471 1.5644 0.4061 255 200 100
24.8638 -10.1131 3.7280 255 200 100
8.4680 -2.8108 -0.0362 255 200 100
11.6525 -2.3891 0.0534 255 200 100
23.6096 -10.8345 4.2719 255 200 100
15.0529 -1.8003 0.1867 255 200 100
18.3921 8.1234 0.1598 255 200 100
18.2749 4.8575 0.2137 255 200 100
15.9987 -1.5759 0.7891 255 200 100
10.4941 1.3040 0.0437 255 200 100
25.8651 -6.2136 3.6594 255 200 100
12.4038 -5.3239 0.1133 255 200 100
7.8033 1.8309 0.0124 255 200 100
8.2912 3.4142 -0.0216 255 200 100
16.2137 -0.5301 0.7790 255 200 100
6.9443 2.7965 -0.0050 255 200 100
13.4789 0.9627 0.0884 255 200 100
16.1449 -1.6046 2.1986 255 200 100
8.5424 1.8379 0.0154 255 200 100
18.1388 3.8638 0.2346 255 200 100
10.9289 -5.4372 0.0313 255 200 100
24.7962 -10.4138 3.1267 255 200 100
16.2141 -0.5448 1.8444 255 200 100
9.2216 -3.9017 -0.0636 255 200 100
15.5721 -3.8127 1.1537 255 200 100
25.1772 -8.7938 1.2925 255 200 100
24.4734 -11.7633 3.1638 255 200 100
6.8865 2.9844 -0.0087 255 200 100
10.3891 -2.1045 0.0328 255 200 100
11.5210 5.2539 -0.0153 255 200 100
8.4718 -2.7611 -0.0337 255 200 100
24.9373 -9.4967 2.5031 255 200 100
14.3748 -4.7794 0.2069 255 200 100
13.0748 -2.1931 0.1205 255 200 100
7.8724 1.0061 0.0276 255 200 100
15.8970 -2.1798 0.7926 255 200 100
7.2732 -1.4725 -0.0053 255 200 100
16.1831 -0.4444 1.1355 255 200 100
7.3118 -0.3415 0.0254 255 200 100
11.7858 3.6815 0.0097 255 200 100
23.4061 -11.5450 4.8906 255 200 100
11.7377 -0.9266 0.0701 255 200 100
11.7479 -0.8018 0.0700 255 200 100
9.3422 -3.1513 -0.0371 255 200 100
23.3663 14.1474 0.2305 255 200 100
29.2077 12.5286 0.5717 255 200 100
9.4075 -2.1971 0.0001 255 200 100
13.8539 -6.6486 0.2069 255 200 100
28.2785 13.9442 3.4730 255 200 100
10.2366 -3.5484 -0.0027 255 200 100
29.2719 18.4592 2.1617 255 200 100
11.6998 -2.5961 0.0397 255 200 100
15.5607 4.0153 0.1152 255 200 100
15.4761 -4.3338 1.1566 255 200 100
29.6000 11.5422 5.5950 255 200 100
13.1291 -1.8416 0.1194 255 200 100
6.7539 -1.3144 -0.0015 255 200 100
13.4571 0.5239 0.0925 255 200 100
10.2726 -3.1942 0.0090 255 200 100
26.4338 -3.0227 5.4503 255 200 100
6.3473 0.3771 0.0281 255 200 100
7.1053 2.1201 0.0100 255 200 100
10.3593 4.0187 -0.0261 255 200 100
6.3578 2.8025 -0.0058 255 200 100
9.3021 3.6294 -0.0376 255 200 100
9.0413 4.7025 -0.0636 255 200 100
24.4545 -11.7515 3.7790 255 200 100
29.6306 14.0435 2.7854 255 200 100
8.5922 -0.8198 0.0285 255 200 100
19.8099 -8.3726 0.4641 255 200 100
8.5697 1.1035 0.0331 255 200 100
25.6699 -6.9238 3.0638 255 200 100
21.6853 2.2977 0.4041 255 200 100
7.8305 1.4563 0.0230 255 200 100
7.8730 1.1307 0.0238 255 200 100
9.2138 4.1801 -0.0572 255 200 100
13.3598 -0.3469 0.1041 255 200 100
24.6056 -6.9271 4.7489 255 200 100
9.3504 3.2511 -0.0248 255 200 100
29.7090 14.1135 2.0457 255 200 100
13.5304 2.7645 0.0620 255 200 100
7.2997 -1.0162 0.0096 255 200 100
11.5009 -3.2072 0.0508 255 200 100
10.1574 -4.0192 -0.0152 255 200 100
13.4403 0.3066 0.0949 255 200 100
10.2477 -3.4912 -0.0016 255 200 100
13.3028 -0.7048 0.1096 255 200 100
15.6577 -3.5626 0.7989 255 200 100
15.9513 -1.8335 0.7909 255 200 100
16.1625 -0.8054 1.8441 255 200 100
26.0234 -5.6325 3.0537 255 200 100
23.3799 -11.5288 5.4864 255 200 100
17.8395 1.6831 0.2720 255 200 100
31.3657 -2.2011 6.1290 255 200 100
16.1151 -7.2633 0.3325 255 200 100
7.7339 2.2867 0.0033 255 200 100
8.1563 3.9847 -0.0396 255 200 100
12.8620 -3.2510 0.1247 255 200 100
11.6156 4.7690 -0.0070 255 200 100
15.1224 8.0776 0.0665 255 200 100
9.2150 4.1208 -0.0532 255 200 100
9.2964 3.6863 -0.0401 255 200 100
7.2881 -1.0520 0.0114 255 200 100
22.6412 7.8734 0.3250 255 200 100
13.5316 2.8410 0.0605 255 200 100
21.5892 5.2482 0.9024 255 200 100
9.4530 -1.2271 0.0252 255 200 100
15.6240 -3.5569 1.5022 255 200 100
15.9590 -7.7346 0.3350 255 200 100
11.7842 -0.1714 0.0693 255 200 100
25.5014 -7.6465 3.0735 255 200 100
19.6520 -8.8279 0.4690 255 200 100
13.0288 -2.4037 0.1225 255 200 100
6.5421 2.2641 -0.0013 255 200 100
30.7005 14.0829 4.3418 255 200 100
24.3118 -11.8479 3.7755 255 200 100
6.8028 0.4403 0.0233 255 200 100
7.2894 0.6984 0.0282 255 200 100
16.1458 -7.1706 0.3319 255 200 100
16.2654 -0.0980 1.4879 255 200 100
10.4917 2.5186 0.0143 255 200 100
15.7233 -2.9521 1.4986 255 200 100
8.5945 0.5654 0.0366 255 200 100
6.3030 1.0112 0.0216 255 200 100
24.5365 -11.1288 1.9316 255 200 100
13.5267 2.9163 0.0598 255 200 100
23.4385 -11.3996 4.8833 255 200 100
15.5773 -3.8163 1.5040 255 200 100
7.8096 1.7055 0.0172 255 200 100
23.8457 -9.8311 4.8202 255 200 100
24.8344 -5.9632 5.3205 255 200 100
10.4750 0.2939 0.0561 255 200 100
9.4301 -2.3624 -0.0122 255 200 100
13.1458 -1.6982 0.1194 255 200 100
12.1115 -6.1687 0.1130 255 200 100
16.0748 -7.3515 0.3340 255 200 100
18.3913 7.7588 0.1658 255 200 100
6.3034 1.1091 0.0163 255 200 100
13.4818 4.5742 0.0267 255 200 100
13.9523 -6.3183 0.2075 255 200 100
22.8428 8.9705 0.3054 255 200 100
13.4956 3.7697 0.0462 255 200 100
9.4611 -1.3811 0.0192 255 200 100
10.4771 -0.2036 0.0545 255 200 100
6.7108 1.4728 0.0109 255 200 100
7.2838 0.6607 0.0306 255 200 100
17.4806 -1.9193 0.2933 255 200 100
7.6354 -3.1887 -0.0623 255 200 100
19.4282 -9.6558 0.4730 255 200 100
21.6780 3.2560 1.3792 255 200 100
16.3631 0.0851 1.1288 255 200 100
18.3326 9.7538 0.1352 255 200 100
8.5115 -2.2843 -0.0126 255 200 100
10.2412 4.7611 -0.0476 255 200 100
29.1415 11.3452 0.5712 255 200 100
14.1116 -5.7483 0.2084 255 200 100
7.8986 0.1113 0.0333 255 200 100
8.5951 -0.8649 0.0267 255 200 100
9.3835 -2.7793 -0.0239 255 200 100
25.6237 -3.2031 4.1670 255 200 100
14.2247 -5.3445 0.2080 255 200 100
15.8207 -2.3515 1.4957 255 200 100
6.6020 2.0233 0.0028 255 200 100
28.7708 16.4688 4.3708 255 200 100
25.3960 -8.0842 3.6838 255 200 100
26.6521 -3.0336 4.2598 255 200 100
19.5008 -9.4232 0.4713 255 200 100
11.6738 -1.6182 0.0689 255 200 100
6.8321 3.1737 -0.0148 255 200 100
11.6183 -2.3148 0.0610 255 200 100
6.7916 0.6466 0.0224 255 200 100
6.8954 2.9446 -0.0069 255 200 100
11.7956 0.0165 0.0682 255 200 100
34.0489 14.0016 6.2226 255 200 100
7.6558 -3.1036 -0.0592 255 200 100
21.8674 7.0509 0.3817 255 200 100
25.4228 -7.7762 3.0734 255 200 100
18.5848 -9.4723 0.9973 255 200 100
7.8690 -1.1094 0.0185 255 200 100
24.1949 -8.5888 4.2039 255 200 100
10.5064 1.1933 0.0431 255 200 100
16.4353 -1.3490 0.7599 255 200 100
23.6683 -4.2947 4.5500 255 200 100
6.7909 0.5790 0.0242 255 200 100
7.7532 2.1190 0.0090 255 200 100
22.9617 9.6221 0.2934 255 200 100
27.5616 0.9182 0.6130 255 200 100
23.3264 13.0578 0.2430 255 200 100
8.5594 1.3307 0.0294 255 200 100
24.6863 -6.5097 5.3250 255 200 100
24.9844 -5.4078 4.7334 255 200 100
9.3823 -2.8331 -0.0266 255 200 100
25.1428 -8.7825 1.8945 255 200 100
18.2571 -9.5558 1.4709 255 200 100
16.0566 -1.0559 1.1396 255 200 100
25.1041 -9.2443 3.1010 255 200 100
7.3066 -0.7905 0.0160 255 200 100
10.1869 -3.9055 -0.0137 255 200 100
13.2887 -0.7755 0.1109 255 200 100
24.5436 -7.0537 5.3325 255 200 100
16.2058 -1.2554 2.1988 255 200 100
24.5321 -11.2943 1.3235 255 200 100
16.1311 -0.7053 1.1372 255 200 100
37.9604 0.8408 0.9911 255 200 100
24.1527 -8.7243 4.2066 255 200 100
7.9067 0.1909 0.0311 255 200 100
10.3274 4.2008 -0.0302 255 200 100
6.5068 2.3251 0.0031 255 200 100
7.8311 1.4148 0.0245 255 200 100
15.5736 -4.8292 1.5077 255 200 100
25.2122 -4.4403 5.3161 255 200 100
18.1901 4.1963 0.2273 255 200 100
13.4965 1.2605 0.0844 255 200 100
16.3204 -0.7283 2.2007 255 200 100
7.3054 0.0678 0.0306 255 200 100
16.0724 -0.9696 1.1391 255 200 100
12.4659 -5.1097 0.1141 255 200 100
25.0799 -5.0011 5.3165 255 200 100
11.8543 0.8430 0.0573 255 200 100
7.2612 -1.5872 -0.0088 255 200 100
10.4659 -0.9821 0.0474 255 200 100
7.8933 0.0710 0.0346 255 200 100
9.3200 -3.2539 -0.0390 255 200 100
24.8744 -9.9616 1.3063 255 200 100
24.9811 -9.6743 3.7169 255 200 100
22.8681 9.1287 0.3028 255 200 100
32.4655 -2.0781 4.7917 255 200 100
9.4485 0.9643 0.0385 255 200 100
20.0948 -7.2026 0.4586 255 200 100
24.7516 -10.2326 2.5171 255 200 100
31.6300 -3.2530 3.2810 255 200 100
12.3765 -5.3916 0.1140 255 200 100
6.7922 0.3714 0.0276 255 200 100
13.2174 -1.1295 0.1173 255 200 100
12.7957 -3.6033 0.1236 255 200 100
15.6753 -3.2101 1.5002 255 200 100
33.9056 -1.8008 5.6985 255 200 100
15.5163 -4.1610 1.1553 255 200 100
10.4863 1.3609 0.0443 255 200 100
33.7230 -1.7969 6.4567 255 200 100
15.2742 7.3038 0.0735 255 200 100
7.1214 2.0845 0.0082 255 200 100
15.5902 -3.9081 0.8005 255 200 100
21.3388 2.4896 0.9057 255 200 100
13.4122 5.0496 0.0215 255 200 100
16.0654 -1.3288 1.8443 255 200 100
8.5787 -1.6403 0.0044 255 200 100
15.7986 -2.5232 1.4963 255 200 100
8.2849 -3.7122 -0.0672 255 200 100
9.0877 -4.3738 -0.0741 255 200 100
10.4646 -0.5925 0.0533 255 200 100
9.3372 3.3019 -0.0250 255 200 100
27.7782 -2.8559 4.3620 255 200 100
23.8665 -9.8453 4.2382 255 200 100
18.3363 6.2104 0.1930 255 200 100
17.0317 -3.8935 0.3126 255 200 100
7.8201 1.4957 0.0240 255 200 100
16.0937 -0.8863 1.4901 255 200 100
23.6762 -9.7752 0.7608 255 200 100
15.9216 -2.8201 2.2022 255 200 100
21.7317 1.4437 0.8844 255 200 100
20.8376 2.7891 0.4629 255 200 100
9.4582 0.8147 0.0386 255 200 100
6.8010 0.2348 0.0263 255 200 100
6.3226 0.7885 0.0250 255 200 100
9.4078 2.2378 0.0121 255 200 100
15.2473 7.4992 0.0707 255 200 100
8.5957 -1.4582 0.0079 255 200 100
12.1252 -6.0898 0.1150 255 200 100
15.6048 -3.6441 1.5029 255 200 100
17.1963 -3.2396 0.3061 255 200 100
11.7270 -1.1789 0.0682 255 200 100
16.0919 -1.1535 1.8441 255 200 100
8.5551 1.2859 0.0317 255 200 100
30.0995 15.3600 2.0740 255 200 100
24.2483 -11.9891 3.7790 255 200 100
15.7380 -2.8668 1.4982 255 200 100
24.1189 -8.8633 4.2102 255 200 100
7.8782 1.0481 0.0250 255 200 100
28.0519 14.7698 4.9495 255 200 100
23.9664 -9.4237 4.2248 255 200 100
8.6026 -0.1935 0.0358 255 200 100
7.6690 -3.0610 -0.0584 255 200 100
18.3408 5.5349 0.2007 255 200 100
29.0669 11.1275 0.5740 255 200 100
25.1083 -9.0895 1.2957 255 200 100
15.5006 3.3679 0.1312 255 200 100
8.3812 -3.2835 -0.0522 255 200 100
7.8660 1.0884 0.0269 255 200 100
16.0949 -1.8658 2.1988 255 200 100
17.9475 2.5961 0.2594 255 200 100
15.7635 -4.9867 1.5038 255 200 100
17.4838 -1.7267 0.2946 255 200 100
15.9173 -1.8354 1.4933 255 200 100
25.0290 -9.2187 1.9006 255 200 100
18.1238 3.7565 0.2367 255 200 100
30.3010 16.5448 2.8849 255 200 100
7.0713 2.2683 0.0079 255 200 100
7.2600 1.1470 0.0226 255 200 100
19.3509 -9.8912 0.4749 255 200 100
15.9154 -1.8334 1.1438 255 200 100
8.5450 -1.9610 -0.0028 255 200 100
24.7968 -10.2577 1.3100 255 200 100
6.4329 2.6014 -0.0043 255 200 100
11.3815 -3.7096 0.0497 255 200 100
6.3464 0.4400 0.0272 255 200 100
17.9028 2.1846 0.2650 255 200 100
15.4946 -4.5264 1.5084 255 200 100
24.9560 -5.5500 4.7349 255 200 100
6.9070 2.9075 -0.0061 255 200 100
13.1607 6.2347 0.0122 255 200 100
25.7651 -6.4913 3.6599 255 200 100
35.0864 14.0417 4.6042 255 200 100
23.0838 10.2943 0.2808 255 200 100
16.2429 -0.4580 1.8445 255 200 100
12.9508 -2.8281 0.1236 255 200 100
23.7971 -10.1269 4.2475 255 200 100
23.9654 -9.2605 5.3879 255 200 100
25.5879 -7.0501 2.4682 255 200 100
9.2338 4.0688 -0.0533 255 200 100
7.8929 -0.0911 0.0342 255 200 100
8.5728 -1.5928 0.0078 255 200 100
18.3517 9.1113 0.1459 255 200 100
16.1236 -1.6903 2.1985 255 200 100
21.8453 6.1947 1.9081 255 200 100
10.4956 2.6994 0.0074 255 200 100
13.5247 2.6872 0.0641 255 200 100
7.3086 -0.4535 0.0243 255 200 100
24.8272 -9.9369 2.5113 255 200 100
18.3437 8.9836 0.1490 255 200 100
24.2182 -12.1376 3.7848 255 200 100
16.0713 -1.2268 0.7858 255 200 100
30.7098 13.2854 3.5361 255 200 100
21.4669 2.2548 1.3780 255 200 100
9.4647 -0.7762 0.0329 255 200 100
28.6018 -3.7485 3.7994 255 200 100
23.2768 -12.1403 4.3254 255 200 100
15.7002 -3.0353 1.1501 255 200 100
13.5160 1.7062 0.0781 255 200 100
7.7618 2.0771 0.0093 255 200 100
25.5832 -7.3587 3.0700 255 200 100
6.8744 3.0215 -0.0094 255 200 100
11.6540 4.4901 -0.0008 255 200 100
30.4566 17.1878 0.5278 255 200 100
24.2637 -8.3077 4.1971 255 200 100
25.4669 -7.4793 2.4729 255 200 100
29.1523 18.4584 5.3086 255 200 100
10.0849 -4.3082 -0.0202 255 200 100
7.8471 1.3753 0.0220 255 200 100
11.5083 5.3238 -0.0168 255 200 100
11.8585 1.4207 0.0514 255 200 100
15.4649 2.6555 0.1433 255 200 100
9.3053 -3.3601 -0.0428 255 200 100
31.7840 12.4757 4.3268 255 200 100
15.4576 0.0961 0.1533 255 200 100
11.3502 6.0260 -0.0302 255 200 100
18.3596 5.8812 0.1950 255 200 100
16.2285 -0.4425 0.7783 255 200 100
11.8490 1.1620 0.0557 255 200 100
15.9241 -2.1055 1.8461 255 200 100
15.2232 7.5919 0.0705 255 200 100
31.6800 12.6688 3.5496 255 200 100
22.1831 5.7677 1.9009 255 200 100
15.6164 -3.5551 1.1524 255 200 100
7.2465 1.2983 0.0199 255 200 100
28.8917 12.2527 4.1393 255 200 100
16.0328 -1.5033 1.8445 255 200 100
11.8430 3.2804 0.0138 255 200 100
21.0164 1.4899 1.8543 255 200 100
9.4632 0.6647 0.0392 255 200 100
15.0365 -1.8808 0.1877 255 200 100
9.4767 -0.0307 0.0384 255 200 100
13.0914 -2.0517 0.1209 255 200 100
23.4231 -11.3843 5.4797 255 200 100
6.3531 0.3460 0.0266 255 200 100
11.6362 -1.9298 0.0681 255 200 100
15.9790 -1.7597 1.8450 255 200 100
14.9946 8.8908 0.0532 255 200 100
29.1042 13.7545 3.4951 255 200 100
11.8537 1.2282 0.0543 255 200 100
15.9609 -1.5785 1.4924 255 200 100
12.8810 -3.1801 0.1241 255 200 100
24.7405 -10.7159 3.1350 255 200 100
13.3511 5.3614 0.0193 255 200 100
6.3159 0.9172 0.0218 255 200 100
9.4805 0.2670 0.0378 255 200 100
21.7021 2.1786 0.4028 255 200 100
11.6461 4.5597 -0.0025 255 200 100
10.4694 3.3643 -0.0142 255 200 100
9.4771 0.3672 0.0383 255 200 100
16.4295 -6.2315 0.3270 255 200 100
11.7317 -1.1165 0.0684 255 200 100
10.2890 4.3796 -0.0334 255 200 100
7.5812 2.9018 -0.0045 255 200 100
6.8435 3.1359 -0.0136 255 200 100
9.2636 -3.6279 -0.0524 255 200 100
15.8178 -2.6101 0.7952 255 200 100
8.5121 2.1110 0.0102 255 200 100
28.1018 -2.7502 5.6786 255 200 100
24.4845 -11.2634 2.5393 255 200 100
23.4526 -11.2384 5.4713 255 200 100
9.0927 -4.3142 -0.0703 255 200 100
25.6049 -6.9022 2.4661 255 200 100
35.1804 11.6630 2.8165 255 200 100
19.7135 -8.7250 0.4662 255 200 100
7.2624 1.1864 0.0202 255 200 100
8.5997 -0.1478 0.0368 255 200 100
15.5383 -4.4435 0.4408 255 200 100
29.2558 18.1782 2.9347 255 200 100
6.3255 0.8209 0.0227 255 200 100
8.5176 -2.3836 -0.0198 255 200 100
24.4801 -7.4762 4.1809 255 200 100
19.9867 -7.6673 0.4607 255 200 100
15.5099 3.4586 0.1290 255 200 100
6.8033 0.4062 0.0237 255 200 100
29.8679 14.8219 2.0619 255 200 100
17.7083 0.2034 0.2836 255 200 100
6.8000 -0.5527 0.0184 255 200 100
28.1474 13.9701 1.3349 255 200 100
9.3330 -3.2033 -0.0384 255 200 100
6.7827 -0.9674 0.0083 255 200 100
8.5686 1.0121 0.0354 255 200 100
27.9773 13.7654 4.1657 255 200 100
7.2931 -1.0918 0.0083 255 200 100
10.2979 -2.9596 0.0155 255 200 100
10.3694 3.9588 -0.0248 255 200 100
6.3448 0.6951 0.0209 255 200 100
18.4978 10.3902 0.1079 255 200 100
6.2217 1.5163 0.0164 255 200 100
8.5973 0.4323 0.0372 255 200 100
24.3949 -7.6009 5.3419 255 200 100
7.4163 3.6817 -0.0374 255 200 100
7.8647 -1.4428 0.0056 255 200 100
8.2240 3.6969 -0.0295 255 200 100
17.7958 1.1836 0.2766 255 200 100
6.7007 1.5426 0.0095 255 200 100
12.2874 -5.6756 0.1132 255 200 100
23.5857 -10.8212 4.8578 255 200 100
9.4209 -2.3071 -0.0077 255 200 100
9.3736 3.0363 -0.0177 255 200 100
21.0332 3.0446 0.9215 255 200 100
10.0426 -4.4826 -0.0241 255 200 100
35.5934 13.4445 1.1417 255 200 100
18.5387 10.6945 0.0980 255 200 100
24.8347 -10.2624 3.7326 255 200 100
15.5469 4.1022 0.1154 255 200 100
13.5018 3.9325 0.0414 255 200 100
15.6365 -3.4706 1.5017 255 200 100
31.7044 -2.2046 4.7215 255 200 100
13.3977 -0.1301 0.0998 255 200 100
23.6600 -10.5395 4.8465 255 200 100
6.3447 0.5039 0.0264 255 200 100
10.3401 -2.6166 0.0226 255 200 100
8.5821 0.8332 0.0358 255 200 100
10.4070 -2.0510 0.0313 255 200 100
10.4091 -1.9355 0.0346 255 200 100
13.5162 3.0719 0.0584 255 200 100
10.1767 -3.9644 -0.0154 255 200 100
12.3560 -5.4627 0.1136 255 200 100
10.4852 2.4581 0.0175 255 200 100
23.9606 -9.4211 4.8073 255 200 100
7.8930 -0.2960 0.0323 255 200 100
7.2462 1.3745 0.0165 255 200 100
14.2697 -5.1821 0.2077 255 200 100
24.9466 -9.6644 1.3028 255 200 100
7.2113 -1.9704 -0.0210 255 200 100
35.2005 12.0510 4.5223 255 200 100
28.0428 14.0514 2.7601 255 200 100
7.3012 0.1046 0.0318 255 200 100
10.4838 2.7557 0.0076 255 200 100
14.1770 -5.5035 0.2086 255 200 100
7.4762 3.4666 -0.0299 255 200 100
15.4517 -0.0713 0.1535 255 200 100
6.7561 1.1284 0.0158 255 200 100
31.6887 18.0007 3.7879 255 200 100
11.3365 -3.9020 0.0484 255 200 100
27.9716 13.9271 4.8852 255 200 100
11.7651 3.8144 0.0083 255 200 100
22.1658 5.0177 0.3681 255 200 100
29.6554 13.8768 2.0404 255 200 100
8.6018 -0.3292 0.0347 255 200 100
9.4536 -1.8419 0.0052 255 200 100
21.8126 6.7445 0.8966 255 200 100
15.0407 8.5820 0.0588 255 200 100
9.4637 -0.9768 0.0291 255 200 100
16.2524 -0.1796 1.1331 255 200 100
7.2542 1.2607 0.0195 255 200 100
16.1681 -0.5343 1.1360 255 200 100
16.2552 -6.7921 0.3306 255 200 100
7.4999 3.3826 -0.0276 255 200 100
15.8618 -2.0886 1.1455 255 200 100
7.0203 2.4133 0.0097 255 200 100
24.6538 -6.7871 4.1702 255 200 100
7.1953 1.7502 0.0103 255 200 100
9.4096 2.1844 0.0138 255 200 100
25.1850 -8.6358 1.8926 255 200 100
29.9284 15.2424 2.8318 255 200 100
25.6427 -7.0720 3.6680 255 200 100
6.7758 0.8875 0.0198 255 200 100
21.7274 3.5128 1.3797 255 200 100
6.7151 1.4394 0.0116 255 200 100
10.4718 -0.8144 0.0490 255 200 100
13.5349 2.1595 0.0704 255 200 100
12.6023 -4.6895 0.1125 255 200 100
15.5009 -4.2501 1.1557 255 200 100
18.2059 -9.4031 0.5582 255 200 100
8.4197 -3.1449 -0.0498 255 200 100
6.2801 1.2339 0.0167 255 200 100
30.3135 16.6544 0.5329 255 200 100
17.7942 0.9884 0.2767 255 200 100
10.4667 -0.7585 0.0508 255 200 100
18.1105 -9.7433 0.5597 255 200 100
10.8997 -5.4986 0.0320 255 200 100
9.4357 1.1638 0.0377 255 200 100
8.5949 -0.7753 0.0289 255 200 100
28.6752 16.2629 2.8511 255 200 100
25.4456 -7.6289 1.8802 255 200 100
21.9584 7.2167 0.3747 255 200 100
9.4682 0.4671 0.0397 255 200 100
11.1241 -4.8714 0.0338 255 200 100
6.8512 3.0963 -0.0113 255 200 100
11.5301 -3.1514 0.0482 255 200 100
16.0028 -2.2970 2.1995 255 200 100
18.3720 6.7992 0.1819 255 200 100
11.8252 3.3457 0.0146 255 200 100
20.7940 2.6552 0.9314 255 200 100
8.5996 0.3867 0.0369 255 200 100
15.7148 -3.2157 0.7978 255 200 100
15.5723 -4.0871 0.8001 255 200 100
10.4739 -0.3722 0.0538 255 200 100
23.7442 -4.1546 2.9282 255 200 100
25.0667 -9.0746 1.8986 255 200 100
7.3037 -0.8276 0.0155 255 200 100
6.7500 1.1983 0.0143 255 200 100
7.2803 -1.1641 0.0087 255 200 100
7.5242 3.2031 -0.0167 255 200 100
24.3232 -11.8612 3.1621 255 200 100
24.9943 -9.5233 1.3008 255 200 100
13.4285 0.3762 0.0966 255 200 100
7.0969 2.1972 0.0065 255 200 100
15.4820 5.3915 0.0986 255 200 100
29.2858 18.3097 0.5854 255 200 100
12.9749 -2.6876 0.1236 255 200 100
10.4899 2.8191 0.0041 255 200 100
7.0009 2.5282 0.0050 255 200 100
8.2348 3.6495 -0.0279 255 200 100
13.5190 3.2245 0.0550 255 200 100
9.1804 4.3441 -0.0626 255 200 100
10.0691 5.2929 -0.0526 255 200 100
31.6857 17.6297 1.2950 255 200 100
23.2060 10.9869 0.2677 255 200 100
30.1842 16.1322 0.5373 255 200 100
18.0378 3.1195 0.2486 255 200 100
8.6024 -1.3222 0.0113 255 200 100
7.5443 3.1658 -0.0182 255 200 100
26.9566 -2.9343 5.5216 255 200 100
6.7513 3.3982 -0.0196 255 200 100
17.0819 -3.7063 0.3106 255 200 100
10.4999 0.7984 0.0489 255 200 100
28.9933 10.7209 0.5762 255 200 100
10.4642 1.8705 0.0379 255 200 100
17.7012 0.1067 0.2841 255 200 100
11.7413 -2.7406 0.0285 255 200 100
6.3582 0.2509 0.0261 255 200 100
12.9033 7.0991 0.0088 255 200 100
9.4513 -1.7386 0.0095 255 200 100
14.1410 -5.6706 0.2075 255 200 100
19.9236 -7.9009 0.4622 255 200 100
22.0633 4.7333 0.3758 255 200 100
6.7988 -0.3117 0.0242 255 200 100
18.3520 5.9907 0.1944 255 200 100
15.5170 4.3700 0.1143 255 200 100
8.3678 -3.3807 -0.0570 255 200 100
22.6807 4.9925 0.8511 255 200 100
11.7194 -2.8015 0.0301 255 200 100
13.5110 3.8559 0.0420 255 200 100
15.9737 -1.7484 0.7899 255 200 100
15.6846 -3.3873 0.7985 255 200 100
15.6352 -4.3797 0.7930 255 200 100
10.4882 2.6378 0.0109 255 200 100
29.5919 12.1932 3.4485 255 200 100
22.3130 5.8472 0.3557 255 200 100
30.1472 15.6067 2.0799 255 200 100
30.2399 16.5762 1.3174 255 200 100
22.6558 8.0249 0.3233 255 200 100
24.2556 -8.1529 5.3552 255 200 100
10.4723 2.1037 0.0304 255 200 100
31.1255 15.8025 4.4615 255 200 100
6.3318 0.6617 0.0264 255 200 100
6.4417 2.5280 0.0011 255 200 100
17.7005 -0.1859 0.2832 255 200 100
6.6346 1.8864 0.0045 255 200 100
6.7798 3.3248 -0.0184 255 200 100
15.6764 -4.0228 0.4350 255 200 100
29.5912 12.4787 6.3998 255 200 100
15.4282 -4.8740 0.8022 255 200 100
9.4637 -0.8274 0.0321 255 200 100
31.2279 12.7387 2.0091 255 200 100
28.2102 14.4477 4.9392 255 200 100
7.8347 -1.9482 -0.0141 255 200 100
23.9285 -9.4031 5.3929 255 200 100
30.3556 16.6052 2.1042 255 200 100
6.3289 2.9072 -0.0103 255 200 100
24.2984 -8.0185 5.3529 255 200 100
24.8034 -10.0931 1.9140 255 200 100
17.9354 2.3912 0.2613 255 200 100
30.2859 -2.4406 4.5911 255 200 100
21.6073 1.2027 0.4083 255 200 100
17.6950 -0.2825 0.2834 255 200 100
6.6897 1.6123 0.0082 255 200 100
7.0533 2.3437 0.0066 255 200 100
17.4654 -2.0140 0.2939 255 200 100
25.3280 -8.0603 1.8853 255 200 100
18.1515 -9.5064 0.5603 255 200 100
9.4372 1.2642 0.0354 255 200 100
11.6210 -2.1867 0.0641 255 200 100
25.8899 -6.0636 3.6573 255 200 100
10.4055 -1.9918 0.0335 255 200 100
11.8517 0.9716 0.0569 255 200 100
6.7962 0.4749 0.0247 255 200 100
15.8175 -2.7034 1.8487 255 200 100
7.8189 1.5372 0.0225 255 200 100
23.5390 -11.1201 4.2829 255 200 100
11.8697 2.8776 0.0211 255 200 100
7.8943 -0.1313 0.0336 255 200 100
16.1087 -0.7943 1.1379 255 200 100
24.6297 -11.1649 3.1470 255 200 100
7.2503 1.3372 0.0171 255 200 100
16.5747 -5.6672 0.3250 255 200 100
10.4872 1.6470 0.0387 255 200 100
9.1691 4.3991 -0.0645 255 200 100
24.5442 -7.2049 4.1760 255 200 100
21.6494 1.8083 0.4062 255 200 100
15.5120 -4.3461 1.5073 255 200 100
16.2252 -0.2733 1.4884 255 200 100
10.9760 -5.3114 0.0316 255 200 100
15.5298 -4.7191 1.5083 255 200 100
8.2028 3.7940 -0.0331 255 200 100
28.0469 15.1110 6.4409 255 200 100
23.6051 -10.6701 5.4448 255 200 100
25.3753 -7.9159 1.8835 255 200 100
27.4016 0.4554 0.6191 255 200 100
6.2488 1.4247 0.0143 255 200 100
17.3881 -2.2968 0.2985 255 200 100
23.3489 12.7220 0.2444 255 200 100
16.2054 -0.3572 1.1348 255 200 100
23.8339 -9.2198 0.7551 255 200 100
8.2845 3.4613 -0.0238 255 200 100
22.0347 7.5014 0.8886 255 200 100
13.4033 5.1298 0.0201 255 200 100
7.1978 1.7119 0.0119 255 200 100
15.8422 -3.3420 2.2063 255 200 100
9.2755 3.8528 -0.0468 255 200 100
34.5044 -2.7757 3.4117 255 200 100
11.2897 -4.0901 0.0472 255 200 100
29.4628 13.3211 3.4898 255 200 100
21.6975 2.4202 0.4033 255 200 100
15.8911 -2.0092 1.4939 255 200 100
7.2456 -1.7013 -0.0116 255 200 100
24.8825 -5.9677 4.1632 255 200 100
22.0091 4.0742 0.8795 255 200 100
23.3715 13.4329 0.2367 255 200 100
6.3598 0.0290 0.0265 255 200 100
10.5067 0.8563 0.0471 255 200 100
10.4939 1.4183 0.0418 255 200 100
6.3594 -0.0652 0.0262 255 200 100
8.5206 2.0648 0.0104 255 200 100
11.8532 0.9083 0.0571 255 200 100
7.8382 -1.9063 -0.0124 255 200 100
12.4365 -5.1761 0.1152 255 200 100
33.6602 -2.9053 4.1429 255 200 100
11.1634 -4.7460 0.0344 255 200 100
6.3605 0.1242 0.0262 255 200 100
11.6926 -1.4291 0.0695 255 200 100
15.8847 -2.2777 1.8467 255 200 100
16.6904 -5.2989 0.3213 255 200 100
19.1833 -8.8592 0.9715 255 200 100
30.6541 -2.3149 6.0304 255 200 100
9.4442 1.1134 0.0369 255 200 100
15.3107 6.9065 0.0807 255 200 100
10.4800 2.3980 0.0203 255 200 100
36.0000 13.1087 2.0026 255 200 100
9.3174 -3.3088 -0.0419 255 200 100
16.3405 0.0915 0.7722 255 200 100
34.3191 -1.7994 4.1832 255 200 100
13.4002 0.0877 0.1002 255 200 100
15.7754 -8.3044 0.3368 255 200 100
11.8534 1.1008 0.0555 255 200 100
22.1679 1.3411 1.3572 255 200 100
9.4138 -2.5186 -0.0164 255 200 100
23.7292 -4.5710 3.4780 255 200 100
17.9999 2.9099 0.2532 255 200 100
11.6392 -1.8684 0.0691 255 200 100
18.2908 -9.0584 1.0122 255 200 100
15.8572 -3.2557 2.2056 255 200 100
13.4213 0.1599 0.0974 255 200 100
7.8517 -1.6092 0.0007 255 200 100
21.9175 7.1888 0.8930 255 200 100
15.2674 7.4047 0.0713 255 200 100
17.2989 -2.6730 0.3030 255 200 100
18.3531 8.7319 0.1527 255 200 100
28.2042 -2.7522 5.0425 255 200 100
15.8328 -8.1093 0.3367 255 200 100
8.0958 4.1717 -0.0437 255 200 100
21.9431 6.9245 0.8911 255 200 100
8.4933 2.2476 0.0078 255 200 100
30.5726 13.4590 2.7821 255 200 100
9.4042 -2.6243 -0.0199 255 200 100
7.2449 -1.7404 -0.0140 255 200 100
7.8801 -1.1951 0.0123 255 200 100
15.7648 -2.9568 0.7963 255 200 100
15.4160 6.0481 0.0911 255 200 100
6.7556 -1.2442 0.0022 255 200 100
16.1119 -1.0702 1.8441 255 200 100
10.0213 5.4062 -0.0522 255 200 100
16.0235 -1.2280 1.1406 255 200 100
27.4726 0.6095 0.6162 255 200 100
16.2548 -0.3524 0.7768 255 200 100
16.1467 -0.6237 1.1367 255 200 100
23.4754 -11.2520 4.8766 255 200 100
6.8078 0.2010 0.0243 255 200 100
26.1758 -5.0619 3.0512 255 200 100
24.2803 -8.1604 4.7717 255 200 100
15.4902 4.8261 0.1091 255 200 100
25.7733 -6.4898 3.0590 255 200 100
18.3338 5.3160 0.2037 255 200 100
16.0179 -2.2109 2.1992 255 200 100
18.3512 8.6057 0.1551 255 200 100
24.6032 -11.1510 3.7588 255 200 100
6.9838 2.6036 0.0028 255 200 100
15.5051 -4.5266 0.8005 255 200 100
7.8717 -1.0278 0.0207 255 200 100
10.4671 -0.7031 0.0515 255 200 100
11.2910 6.2359 -0.0333 255 200 100
9.4465 1.0653 0.0373 255 200 100
13.4857 4.3311 0.0331 255 200 100
25.2430 -8.5026 1.2895 255 200 100
8.4151 -3.1956 -0.0527 255 200 100
8.4147 2.7063 -0.0002 255 200 100
25.1051 -8.9261 1.8965 255 200 100
11.5947 -2.9689 0.0444 255 200 100
26.0469 -5.3412 3.6512 255 200 100
8.6035 -0.6854 0.0287 255 200 100
24.5363 -11.4515 3.7691 255 200 100
13.7432 -6.9727 0.2072 255 200 100
10.4750 -0.4809 0.0526 255 200 100
15.6758 -3.4774 0.7983 255 200 100
15.8085 -3.5139 2.2078 255 200 100
25.2940 -4.1731 5.3194 255 200 100
13.5228 3.3053 0.0528 255 200 100
28.6952 -2.6456 5.7601 255 200 100
16.6387 -5.4867 0.3226 255 200 100
11.6285 -2.0579 0.0662 255 200 100
23.3878 14.3370 0.2273 255 200 100
11.8061 0.2713 0.0668 255 200 100
10.4718 3.0530 -0.0016 255 200 100
29.2968 11.7889 0.5653 255 200 100
7.9079 0.5180 0.0282 255 200 100
12.1797 -5.9501 0.1146 255 200 100
13.0219 -2.4773 0.1219 255 200 100
15.8027 -2.7942 1.8492 255 200 100
12.1530 -6.0215 0.1146 255 200 100
11.7621 -0.7401 0.0684 255 200 100
16.1539 -1.5174 2.1985 255 200 100
11.6318 -2.1227 0.0640 255 200 100
11.8248 0.5234 0.0635 255 200 100
10.4778 1.7573 0.0380 255 200 100
7.1805 -2.1624 -0.0276 255 200 100
21.6085 5.7508 1.4006 255 200 100
28.6189 -3.7431 3.1461 255 200 100
6.7959 0.7857 0.0170 255 200 100
18.3936 7.6396 0.1675 255 200 100
13.3635 -0.2732 0.1040 255 200 100
7.8183 -2.0733 -0.0179 255 200 100
10.4860 2.5780 0.0134 255 200 100
17.4189 -2.2043 0.2965 255 200 100
21.6608 3.1314 1.3788 255 200 100
21.0548 2.8115 0.9198 255 200 100
23.6331 -10.6851 4.8534 255 200 100
30.0556 15.6200 0.5417 255 200 100
6.9183 2.8703 -0.0054 255 200 100
13.2482 5.9229 0.0127 255 200 100
13.4770 1.0375 0.0883 255 200 100
7.8026 1.5753 0.0250 255 200 100
15.6126 -3.8237 0.7997 255 200 100
23.3301 12.0327 0.2514 255 200 100
25.2862 -8.6714 3.6974 255 200 100
6.8024 -0.5882 0.0167 255 200 100
10.3087 -2.9053 0.0160 255 200 100
24.8799 -5.8258 4.7360 255 200 100
15.5346 4.1897 0.1154 255 200 100
7.2774 -1.3185 0.0019 255 200 100
7.8980 -0.2132 0.0319 255 200 100
15.9211 -2.0076 0.7920 255 200 100
29.0356 15.0651 5.7943 255 200 100
30.5896 13.3165 1.2645 255 200 100
13.5288 3.5409 0.0469 255 200 100
