ply
format ascii 1.0
element vertex 1399
property float x
property float y
property float z
property uchar red
property uchar green
property uchar blue
end_header
15.9840 -9.8809 0.9521 100 150 255
15.9840 -9.8809 0.9619 100 150 255
15.9840 -9.8809 0.9718 100 150 255
15.9840 -9.8809 0.9816 100 150 255
15.9840 -9.8809 0.9915 100 150 255
15.9840 -9.8809 1.0013 100 150 255
15.9840 -9.8809 1.0111 100 150 255
15.9840 -9.8809 1.0210 100 150 255
15.9840 -9.8809 1.0308 100 150 255
15.9840 -9.8809 1.0407 100 150 255
15.9840 -9.8809 1.0505 100 150 255
15.9840 -9.8809 1.0603 100 150 255
15.9840 -9.8809 1.0702 100 150 255
15.9840 -9.8809 1.0800 100 150 255
15.9840 -9.8809 1.0899 100 150 255
15.9840 -9.8809 1.0997 100 150 255
15.9840 -9.8809 1.1095 100 150 255
15.9840 -9.8809 1.1194 100 150 255
15.9840 -9.8809 1.1292 100 150 255
15.9840 -9.8809 1.1391 100 150 255
15.9840 -9.8809 1.1489 100 150 255
15.9840 -9.8809 1.1587 100 150 255
15.9840 -9.8809 1.1686 100 150 255
15.9840 -9.8809 1.1784 100 150 255
15.9840 -9.8809 1.1883 100 150 255
15.9840 -9.8809 1.1981 100 150 255
15.9840 -9.8809 1.2079 100 150 255
15.9840 -9.8809 1.2178 100 150 255
15.9840 -9.8809 1.2276 100 150 255
15.9840 -9.8809 1.2374 100 150 255
15.9840 -9.8809 1.2473 100 150 255
15.9840 -9.8809 1.2571 100 150 255
15.9840 -9.8809 1.2670 100 150 255
15.9840 -9.8809 1.2768 100 150 255
15.9840 -9.8809 1.2866 100 150 255
15.9840 -9.8809 1.2965 100 150 255
15.9840 -9.8809 1.3063 100 150 255
15.9840 -9.8809 1.3162 100 150 255
15.9840 -9.8809 1.3260 100 150 255
15.9840 -9.8809 1.3358 100 150 255
15.9840 -9.8809 1.3457 100 150 255
15.9840 -9.8809 1.3555 100 150 255
15.9840 -9.8809 1.3654 100 150 255
15.9840 -9.8809 1.3752 100 150 255
15.9840 -9.8809 1.3850 100 150 255
15.9840 -9.8809 1.3949 100 150 255
15.9840 -9.8809 1.4047 100 150 255
15.9840 -9.8809 1.4146 100 150 255
15.9840 -9.8809 1.4244 100 150 255
15.9840 -9.8809 1.4342 100 150 255
15.9840 -9.8809 1.4441 100 150 255
15.9840 -9.8809 1.4539 100 150 255
15.9840 -9.8809 1.4638 100 150 255
15.9840 -9.8809 1.4736 100 150 255
15.9840 -9.8809 1.4834 100 150 255
15.9840 -9.8809 1.4933 100 150 255
15.9840 -9.8809 1.5031 100 150 255
15.9840 -9.8809 1.5130 100 150 255
15.9840 -9.8809 1.5228 100 150 255
15.9840 -9.8809 1.5326 100 150 255
15.9840 -9.8809 1.5425 100 150 255
15.9840 -9.8809 1.5523 100 150 255
15.9840 -9.8809 1.5622 100 150 255
15.9840 -9.8809 1.5720 100 150 255
15.9840 -9.8809 1.5818 100 150 255
15.9840 -9.8809 1.5917 100 150 255
15.9840 -9.8809 1.6015 100 150 255
15.9840 -9.8809 1.6113 100 150 255
15.9840 -9.8809 1.6212 100 150 255
15.9840 -9.8809 1.6310 100 150 255
15.9840 -9.8809 1.6409 100 150 255
15.9840 -9.8809 1.6507 100 150 255
15.9840 -9.8809 1.6605 100 150 255
15.9840 -9.8809 1.6704 100 150 255
15.9840 -9.8809 1.6802 100 150 255
15.9840 -9.8809 1.6901 100 150 255
15.9840 -9.8809 1.6999 100 150 255
15.9840 -9.8809 1.7097 100 150 255
15.9840 -9.8809 1.7196 100 150 255
15.9840 -9.8809 1.7294 100 150 255
15.9840 -9.8809 1.7393 100 150 255
15.9840 -9.8809 1.7491 100 150 255
15.9840 -9.8809 1.7589 100 150 255
15.9840 -9.8809 1.7688 100 150 255
15.9840 -9.8809 1.7786 100 150 255
15.9840 -9.8809 1.7885 100 150 255
15.9840 -9.8809 1.7983 100 150 255
15.9840 -9.8809 1.8081 100 150 255
15.9840 -9.8809 1.8180 100 150 255
15.9840 -9.8809 1.8278 100 150 255
15.9840 -9.8809 1.8377 100 150 255
15.9840 -9.8809 1.8475 100 150 255
15.9840 -9.8809 1.8573 100 150 255
15.9840 -9.8809 1.8672 100 150 255
15.9840 -9.8809 1.8770 100 150 255
15.9840 -9.8809 1.8869 100 150 255
15.9840 -9.8809 1.8967 100 150 255
15.9840 -9.8809 1.9065 100 150 255
15.9840 -9.8809 1.9164 100 150 255
15.9840 -9.8809 1.9262 100 150 255
15.9840 -9.8809 1.9361 100 150 255
15.9840 -9.8809 1.9459 100 150 255
15.9840 -9.8809 1.9557 100 150 255
15.9840 -9.8809 1.9656 100 150 255
15.9840 -9.8809 1.9754 100 150 255
15.9840 -9.8809 1.9852 100 150 255
15.9840 -9.8809 1.9951 100 150 255
20.0779 -10.5086 0.3716 100 150 255
20.0779 -10.5086 0.3814 100 150 255
20.0779 -10.5086 0.3913 100 150 255
20.0779 -10.5086 0.4011 100 150 255
20.0779 -10.5086 0.4109 100 150 255
20.0779 -10.5086 0.4208 100 150 255
20.0779 -10.5086 0.4306 100 150 255
20.0779 -10.5086 0.4405 100 150 255
20.0779 -10.5086 0.4503 100 150 255
20.0779 -10.5086 0.4601 100 150 255
20.0779 -10.5086 0.4700 100 150 255
20.0779 -10.5086 0.4798 100 150 255
20.0779 -10.5086 0.4897 100 150 255
20.0779 -10.5086 0.4995 100 150 255
20.0779 -10.5086 0.5093 100 150 255
20.0779 -10.5086 0.5192 100 150 255
20.0779 -10.5086 0.5290 100 150 255
20.0779 -10.5086 0.5388 100 150 255
20.0779 -10.5086 0.5487 100 150 255
20.0779 -10.5086 0.5585 100 150 255
20.0779 -10.5086 0.5684 100 150 255
20.0779 -10.5086 0.5782 100 150 255
20.0779 -10.5086 0.5880 100 150 255
20.0779 -10.5086 0.5979 100 150 255
20.0779 -10.5086 0.6077 100 150 255
20.0779 -10.5086 0.6176 100 150 255
20.0779 -10.5086 0.6274 100 150 255
20.0779 -10.5086 0.6372 100 150 255
20.0779 -10.5086 0.6471 100 150 255
20.0779 -10.5086 0.6569 100 150 255
20.0779 -10.5086 0.6668 100 150 255
20.0779 -10.5086 0.6766 100 150 255
20.0779 -10.5086 0.6864 100 150 255
20.0779 -10.5086 0.6963 100 150 255
20.0779 -10.5086 0.7061 100 150 255
20.0779 -10.5086 0.7160 100 150 255
20.0779 -10.5086 0.7258 100 150 255
20.0779 -10.5086 0.7356 100 150 255
20.0779 -10.5086 0.7455 100 150 255
20.0779 -10.5086 0.7553 100 150 255
20.0779 -10.5086 0.7652 100 150 255
20.0779 -10.5086 0.7750 100 150 255
20.0779 -10.5086 0.7848 100 150 255
20.0779 -10.5086 0.7947 100 150 255
20.0779 -10.5086 0.8045 100 150 255
20.0779 -10.5086 0.8144 100 150 255
20.0779 -10.5086 0.8242 100 150 255
20.0779 -10.5086 0.8340 100 150 255
20.0779 -10.5086 0.8439 100 150 255
20.0779 -10.5086 0.8537 100 150 255
20.0779 -10.5086 0.8635 100 150 255
20.0779 -10.5086 0.8734 100 150 255
20.0779 -10.5086 0.8832 100 150 255
20.0779 -10.5086 0.8931 100 150 255
20.0779 -10.5086 0.9029 100 150 255
20.0779 -10.5086 0.9127 100 150 255
20.0779 -10.5086 0.9226 100 150 255
20.0779 -10.5086 0.9324 100 150 255
20.0779 -10.5086 0.9423 100 150 255
20.0779 -10.5086 0.9521 100 150 255
20.0779 -10.5086 0.9619 100 150 255
20.0779 -10.5086 0.9718 100 150 255
20.0779 -10.5086 0.9816 100 150 255
20.0779 -10.5086 0.9915 100 150 255
20.0779 -10.5086 1.0013 100 150 255
20.0779 -10.5086 1.0111 100 150 255
20.0779 -10.5086 1.0210 100 150 255
20.0779 -10.5086 1.0308 100 150 255
20.0779 -10.5086 1.0407 100 150 255
20.0779 -10.5086 1.0505 100 150 255
20.0779 -10.5086 1.0603 100 150 255
20.0779 -10.5086 1.0702 100 150 255
20.0779 -10.5086 1.0800 100 150 255
20.0779 -10.5086 1.0899 100 150 255
20.0779 -10.5086 1.0997 100 150 255
20.0779 -10.5086 1.1095 100 150 255
20.0779 -10.5086 1.1194 100 150 255
20.0779 -10.5086 1.1292 100 150 255
20.0779 -10.5086 1.1391 100 150 255
20.0779 -10.5086 1.1489 100 150 255
20.0779 -10.5086 1.1587 100 150 255
20.0779 -10.5086 1.1686 100 150 255
20.0779 -10.5086 1.1784 100 150 255
20.0779 -10.5086 1.1883 100 150 255
20.0779 -10.5086 1.1981 100 150 255
20.0779 -10.5086 1.2079 100 150 255
20.0779 -10.5086 1.2178 100 150 255
20.0779 -10.5086 1.2276 100 150 255
20.0779 -10.5086 1.2374 100 150 255
20.0779 -10.5086 1.2473 100 150 255
20.0779 -10.5086 1.2571 100 150 255
20.0779 -10.5086 1.2670 100 150 255
20.0779 -10.5086 1.2768 100 150 255
20.0779 -10.5086 1.2866 100 150 255
20.0779 -10.5086 1.2965 100 150 255
20.0779 -10.5086 1.3063 100 150 255
20.0779 -10.5086 1.3162 100 150 255
20.0779 -10.5086 1.3260 100 150 255
20.0779 -10.5086 1.3358 100 150 255
20.0779 -10.5086 1.3457 100 150 255
20.0779 -10.5086 1.3555 100 150 255
20.0779 -10.5086 1.3654 100 150 255
20.0779 -10.5086 1.3752 100 150 255
20.0779 -10.5086 1.3850 100 150 255
20.0779 -10.5086 1.3949 100 150 255
20.0779 -10.5086 1.4047 100 150 255
20.0779 -10.5086 1.4146 100 150 255
20.0779 -10.5086 1.4244 100 150 255
20.0779 -10.5086 1.4342 100 150 255
20.0779 -10.5086 1.4441 100 150 255
20.0779 -10.5086 1.4539 100 150 255
20.0779 -10.5086 1.4638 100 150 255
20.0779 -10.5086 1.4736 100 150 255
20.0779 -10.5086 1.4834 100 150 255
20.0779 -10.5086 1.4933 100 150 255
20.0779 -10.5086 1.5031 100 150 255
20.0779 -10.5086 1.5130 100 150 255
20.0779 -10.5086 1.5228 100 150 255
20.0779 -10.5086 1.5326 100 150 255
20.0779 -10.5086 1.5425 100 150 255
20.0779 -10.5086 1.5523 100 150 255
20.0779 -10.5086 1.5622 100 150 255
20.0779 -10.5086 1.5720 100 150 255
20.0779 -10.5086 1.5818 100 150 255
20.0779 -10.5086 1.5917 100 150 255
20.0779 -10.5086 1.6015 100 150 255
20.0779 -10.5086 1.6113 100 150 255
20.0779 -10.5086 1.6212 100 150 255
20.0779 -10.5086 1.6310 100 150 255
20.0779 -10.5086 1.6409 100 150 255
20.0779 -10.5086 1.6507 100 150 255
20.0779 -10.5086 1.6605 100 150 255
20.0779 -10.5086 1.6704 100 150 255
20.0779 -10.5086 1.6802 100 150 255
20.0779 -10.5086 1.6901 100 150 255
20.0779 -10.5086 1.6999 100 150 255
20.0779 -10.5086 1.7097 100 150 255
20.0779 -10.5086 1.7196 100 150 255
20.0779 -10.5086 1.7294 100 150 255
20.0779 -10.5086 1.7393 100 150 255
20.0779 -10.5086 1.7491 100 150 255
20.0779 -10.5086 1.7589 100 150 255
20.0779 -10.5086 1.7688 100 150 255
20.0779 -10.5086 1.7786 100 150 255
20.0779 -10.5086 1.7885 100 150 255
20.0779 -10.5086 1.7983 100 150 255
20.0779 -10.5086 1.8081 100 150 255
20.0779 -10.5086 1.8180 100 150 255
20.0779 -10.5086 1.8278 100 150 255
20.0779 -10.5086 1.8377 100 150 255
20.0779 -10.5086 1.8475 100 150 255
20.0779 -10.5086 1.8573 100 150 255
20.0779 -10.5086 1.8672 100 150 255
20.0779 -10.5086 1.8770 100 150 255
20.0779 -10.5086 1.8869 100 150 255
20.0779 -10.5086 1.8967 100 150 255
20.0779 -10.5086 1.9065 100 150 255
20.0779 -10.5086 1.9164 100 150 255
20.0779 -10.5086 1.9262 100 150 255
20.0779 -10.5086 1.9361 100 150 255
20.0779 -10.5086 1.9459 100 150 255
20.0779 -10.5086 1.9557 100 150 255
20.0779 -10.5086 1.9656 100 150 255
20.0779 -10.5086 1.9754 100 150 255
20.0779 -10.5086 1.9852 100 150 255
20.0779 -10.5086 1.9951 100 150 255
20.3150 -8.9625 0.3716 100 150 255
20.3150 -8.9625 0.3814 100 150 255
20.3150 -8.9625 0.3913 100 150 255
20.3150 -8.9625 0.4011 100 150 255
20.3150 -8.9625 0.4109 100 150 255
20.3150 -8.9625 0.4208 100 150 255
20.3150 -8.9625 0.4306 100 150 255
20.3150 -8.9625 0.4405 100 150 255
20.3150 -8.9625 0.4503 100 150 255
20.3150 -8.9625 0.4601 100 150 255
20.3150 -8.9625 0.4700 100 150 255
20.3150 -8.9625 0.4798 100 150 255
20.3150 -8.9625 0.4897 100 150 255
20.3150 -8.9625 0.4995 100 150 255
20.3150 -8.9625 0.5093 100 150 255
20.3150 -8.9625 0.5192 100 150 255
20.3150 -8.9625 0.5290 100 150 255
20.3150 -8.9625 0.5388 100 150 255
20.3150 -8.9625 0.5487 100 150 255
20.3150 -8.9625 0.5585 100 150 255
20.3150 -8.9625 0.5684 100 150 255
20.3150 -8.9625 0.5782 100 150 255
20.3150 -8.9625 0.5880 100 150 255
20.3150 -8.9625 0.5979 100 150 255
20.3150 -8.9625 0.6077 100 150 255
20.3150 -8.9625 0.6176 100 150 255
20.3150 -8.9625 0.6274 100 150 255
20.3150 -8.9625 0.6372 100 150 255
20.3150 -8.9625 0.6471 100 150 255
20.3150 -8.9625 0.6569 100 150 255
20.3150 -8.9625 0.6668 100 150 255
20.3150 -8.9625 0.6766 100 150 255
20.3150 -8.9625 0.6864 100 150 255
20.3150 -8.9625 0.6963 100 150 255
20.3150 -8.9625 0.7061 100 150 255
20.3150 -8.9625 0.7160 100 150 255
20.3150 -8.9625 0.7258 100 150 255
20.3150 -8.9625 0.7356 100 150 255
20.3150 -8.9625 0.7455 100 150 255
20.3150 -8.9625 0.7553 100 150 255
20.3150 -8.9625 0.7652 100 150 255
20.3150 -8.9625 0.7750 100 150 255
20.3150 -8.9625 0.7848 100 150 255
20.3150 -8.9625 0.7947 100 150 255
20.3150 -8.9625 0.8045 100 150 255
20.3150 -8.9625 0.8144 100 150 255
20.3150 -8.9625 0.8242 100 150 255
20.3150 -8.9625 0.8340 100 150 255
20.3150 -8.9625 0.8439 100 150 255
20.3150 -8.9625 0.8537 100 150 255
20.3150 -8.9625 0.8635 100 150 255
20.3150 -8.9625 0.8734 100 150 255
20.3150 -8.9625 0.8832 100 150 255
20.3150 -8.9625 0.8931 100 150 255
20.3150 -8.9625 0.9029 100 150 255
20.3150 -8.9625 0.9127 100 150 255
20.3150 -8.9625 0.9226 100 150 255
20.3150 -8.9625 0.9324 100 150 255
20.3150 -8.9625 0.9423 100 150 255
20.3150 -8.9625 0.9521 100 150 255
20.3150 -8.9625 0.9619 100 150 255
20.3150 -8.9625 0.9718 100 150 255
20.3150 -8.9625 0.9816 100 150 255
20.3150 -8.9625 0.9915 100 150 255
20.3150 -8.9625 1.0013 100 150 255
20.3150 -8.9625 1.0111 100 150 255
20.3150 -8.9625 1.0210 100 150 255
20.3150 -8.9625 1.0308 100 150 255
20.3150 -8.9625 1.0407 100 150 255
20.3150 -8.9625 1.0505 100 150 255
20.3150 -8.9625 1.0603 100 150 255
20.3150 -8.9625 1.0702 100 150 255
20.3150 -8.9625 1.0800 100 150 255
20.3150 -8.9625 1.0899 100 150 255
20.3150 -8.9625 1.0997 100 150 255
20.3150 -8.9625 1.1095 100 150 255
20.3150 -8.9625 1.1194 100 150 255
20.3150 -8.9625 1.1292 100 150 255
20.3150 -8.9625 1.1391 100 150 255
20.3150 -8.9625 1.1489 100 150 255
20.3150 -8.9625 1.1587 100 150 255
20.3150 -8.9625 1.1686 100 150 255
20.3150 -8.9625 1.1784 100 150 255
20.3150 -8.9625 1.1883 100 150 255
20.3150 -8.9625 1.1981 100 150 255
20.3150 -8.9625 1.2079 100 150 255
20.3150 -8.9625 1.2178 100 150 255
20.3150 -8.9625 1.2276 100 150 255
20.3150 -8.9625 1.2374 100 150 255
20.3150 -8.9625 1.2473 100 150 255
20.3150 -8.9625 1.2571 100 150 255
20.3150 -8.9625 1.2670 100 150 255
20.3150 -8.9625 1.2768 100 150 255
20.3150 -8.9625 1.2866 100 150 255
20.3150 -8.9625 1.2965 100 150 255
20.3150 -8.9625 1.3063 100 150 255
20.3150 -8.9625 1.3162 100 150 255
20.3150 -8.9625 1.3260 100 150 255
20.3150 -8.9625 1.3358 100 150 255
20.3150 -8.9625 1.3457 100 150 255
20.3150 -8.9625 1.3555 100 150 255
20.3150 -8.9625 1.3654 100 150 255
20.3150 -8.9625 1.3752 100 150 255
20.3150 -8.9625 1.3850 100 150 255
20.3150 -8.9625 1.3949 100 150 255
20.3150 -8.9625 1.4047 100 150 255
20.3150 -8.9625 1.4146 100 150 255
20.3150 -8.9625 1.4244 100 150 255
20.3150 -8.9625 1.4342 100 150 255
20.3150 -8.9625 1.4441 100 150 255
20.3150 -8.9625 1.4539 100 150 255
20.3150 -8.9625 1.4638 100 150 255
20.3150 -8.9625 1.4736 100 150 255
20.3150 -8.9625 1.4834 100 150 255
20.3150 -8.9625 1.4933 100 150 255
20.3150 -8.9625 1.5031 100 150 255
20.3150 -8.9625 1.5130 100 150 255
20.3150 -8.9625 1.5228 100 150 255
20.3150 -8.9625 1.5326 100 150 255
20.3150 -8.9625 1.5425 100 150 255
20.3150 -8.9625 1.5523 100 150 255
20.3150 -8.9625 1.5622 100 150 255
20.3150 -8.9625 1.5720 100 150 255
20.3150 -8.9625 1.5818 100 150 255
20.3150 -8.9625 1.5917 100 150 255
20.3150 -8.9625 1.6015 100 150 255
20.3150 -8.9625 1.6113 100 150 255
20.3150 -8.9625 1.6212 100 150 255
20.3150 -8.9625 1.6310 100 150 255
20.3150 -8.9625 1.6409 100 150 255
20.3150 -8.9625 1.6507 100 150 255
20.3150 -8.9625 1.6605 100 150 255
20.3150 -8.9625 1.6704 100 150 255
20.3150 -8.9625 1.6802 100 150 255
20.3150 -8.9625 1.6901 100 150 255
20.3150 -8.9625 1.6999 100 150 255
20.3150 -8.9625 1.7097 100 150 255
20.3150 -8.9625 1.7196 100 150 255
20.3150 -8.9625 1.7294 100 150 255
20.3150 -8.9625 1.7393 100 150 255
20.3150 -8.9625 1.7491 100 150 255
20.3150 -8.9625 1.7589 100 150 255
20.3150 -8.9625 1.7688 100 150 255
20.3150 -8.9625 1.7786 100 150 255
20.3150 -8.9625 1.7885 100 150 255
20.3150 -8.9625 1.7983 100 150 255
20.3150 -8.9625 1.8081 100 150 255
20.3150 -8.9625 1.8180 100 150 255
20.3150 -8.9625 1.8278 100 150 255
20.3150 -8.9625 1.8377 100 150 255
20.3150 -8.9625 1.8475 100 150 255
20.3150 -8.9625 1.8573 100 150 255
20.3150 -8.9625 1.8672 100 150 255
20.3150 -8.9625 1.8770 100 150 255
20.3150 -8.9625 1.8869 100 150 255
20.3150 -8.9625 1.8967 100 150 255
20.3150 -8.9625 1.9065 100 150 255
20.3150 -8.9625 1.9164 100 150 255
20.3150 -8.9625 1.9262 100 150 255
20.3150 -8.9625 1.9361 100 150 255
20.3150 -8.9625 1.9459 100 150 255
20.3150 -8.9625 1.9557 100 150 255
20.3150 -8.9625 1.9656 100 150 255
20.3150 -8.9625 1.9754 100 150 255
20.3150 -8.9625 1.9852 100 150 255
20.3150 -8.9625 1.9951 100 150 255
16.2211 -8.3348 0.3716 100 150 255
16.2211 -8.3348 0.3814 100 150 255
16.2211 -8.3348 0.3913 100 150 255
16.2211 -8.3348 0.4011 100 150 255
16.2211 -8.3348 0.4109 100 150 255
16.2211 -8.3348 0.4208 100 150 255
16.2211 -8.3348 0.4306 100 150 255
16.2211 -8.3348 0.4405 100 150 255
16.2211 -8.3348 0.4503 100 150 255
16.2211 -8.3348 0.4601 100 150 255
16.2211 -8.3348 0.4700 100 150 255
16.2211 -8.3348 0.4798 100 150 255
16.2211 -8.3348 0.4897 100 150 255
16.2211 -8.3348 0.4995 100 150 255
16.2211 -8.3348 0.5093 100 150 255
16.2211 -8.3348 0.5192 100 150 255
16.2211 -8.3348 0.5290 100 150 255
16.2211 -8.3348 0.5388 100 150 255
16.2211 -8.3348 0.5487 100 150 255
16.2211 -8.3348 0.5585 100 150 255
16.2211 -8.3348 0.5684 100 150 255
16.2211 -8.3348 0.5782 100 150 255
16.2211 -8.3348 0.5880 100 150 255
16.2211 -8.3348 0.5979 100 150 255
16.2211 -8.3348 0.6077 100 150 255
16.2211 -8.3348 0.6176 100 150 255
16.2211 -8.3348 0.6274 100 150 255
16.2211 -8.3348 0.6372 100 150 255
16.2211 -8.3348 0.6471 100 150 255
16.2211 -8.3348 0.6569 100 150 255
16.2211 -8.3348 0.6668 100 150 255
16.2211 -8.3348 0.6766 100 150 255
16.2211 -8.3348 0.6864 100 150 255
16.2211 -8.3348 0.6963 100 150 255
16.2211 -8.3348 0.7061 100 150 255
16.2211 -8.3348 0.7160 100 150 255
16.2211 -8.3348 0.7258 100 150 255
16.2211 -8.3348 0.7356 100 150 255
16.2211 -8.3348 0.7455 100 150 255
16.2211 -8.3348 0.7553 100 150 255
16.2211 -8.3348 0.7652 100 150 255
16.2211 -8.3348 0.7750 100 150 255
16.2211 -8.3348 0.7848 100 150 255
16.2211 -8.3348 0.7947 100 150 255
16.2211 -8.3348 0.8045 100 150 255
16.2211 -8.3348 0.8144 100 150 255
16.2211 -8.3348 0.8242 100 150 255
16.2211 -8.3348 0.8340 100 150 255
16.2211 -8.3348 0.8439 100 150 255
16.2211 -8.3348 0.8537 100 150 255
16.2211 -8.3348 0.8635 100 150 255
16.2211 -8.3348 0.8734 100 150 255
16.2211 -8.3348 0.8832 100 150 255
16.2211 -8.3348 0.8931 100 150 255
16.2211 -8.3348 0.9029 100 150 255
16.2211 -8.3348 0.9127 100 150 255
16.2211 -8.3348 0.9226 100 150 255
16.2211 -8.3348 0.9324 100 150 255
16.2211 -8.3348 0.9423 100 150 255
16.2211 -8.3348 0.9521 100 150 255
16.2211 -8.3348 0.9619 100 150 255
16.2211 -8.3348 0.9718 100 150 255
16.2211 -8.3348 0.9816 100 150 255
16.2211 -8.3348 0.9915 100 150 255
16.2211 -8.3348 1.0013 100 150 255
16.2211 -8.3348 1.0111 100 150 255
16.2211 -8.3348 1.0210 100 150 255
16.2211 -8.3348 1.0308 100 150 255
16.2211 -8.3348 1.0407 100 150 255
16.2211 -8.3348 1.0505 100 150 255
16.2211 -8.3348 1.0603 100 150 255
16.2211 -8.3348 1.0702 100 150 255
16.2211 -8.3348 1.0800 100 150 255
16.2211 -8.3348 1.0899 100 150 255
16.2211 -8.3348 1.0997 100 150 255
16.2211 -8.3348 1.1095 100 150 255
16.2211 -8.3348 1.1194 100 150 255
16.2211 -8.3348 1.1292 100 150 255
16.2211 -8.3348 1.1391 100 150 255
16.2211 -8.3348 1.1489 100 150 255
16.2211 -8.3348 1.1587 100 150 255
16.2211 -8.3348 1.1686 100 150 255
16.2211 -8.3348 1.1784 100 150 255
16.2211 -8.3348 1.1883 100 150 255
16.2211 -8.3348 1.1981 100 150 255
16.2211 -8.3348 1.2079 100 150 255
16.2211 -8.3348 1.2178 100 150 255
16.2211 -8.3348 1.2276 100 150 255
16.2211 -8.3348 1.2374 100 150 255
16.2211 -8.3348 1.2473 100 150 255
16.2211 -8.3348 1.2571 100 150 255
16.2211 -8.3348 1.2670 100 150 255
16.2211 -8.3348 1.2768 100 150 255
16.2211 -8.3348 1.2866 100 150 255
16.2211 -8.3348 1.2965 100 150 255
16.2211 -8.3348 1.3063 100 150 255
16.2211 -8.3348 1.3162 100 150 255
16.2211 -8.3348 1.3260 100 150 255
16.2211 -8.3348 1.3358 100 150 255
16.2211 -8.3348 1.3457 100 150 255
16.2211 -8.3348 1.3555 100 150 255
16.2211 -8.3348 1.3654 100 150 255
16.2211 -8.3348 1.3752 100 150 255
16.2211 -8.3348 1.3850 100 150 255
16.2211 -8.3348 1.3949 100 150 255
16.2211 -8.3348 1.4047 100 150 255
16.2211 -8.3348 1.4146 100 150 255
16.2211 -8.3348 1.4244 100 150 255
16.2211 -8.3348 1.4342 100 150 255
16.2211 -8.3348 1.4441 100 150 255
16.2211 -8.3348 1.4539 100 150 255
16.2211 -8.3348 1.4638 100 150 255
16.2211 -8.3348 1.4736 100 150 255
16.2211 -8.3348 1.4834 100 150 255
16.2211 -8.3348 1.4933 100 150 255
16.2211 -8.3348 1.5031 100 150 255
16.2211 -8.3348 1.5130 100 150 255
16.2211 -8.3348 1.5228 100 150 255
16.2211 -8.3348 1.5326 100 150 255
16.2211 -8.3348 1.5425 100 150 255
16.2211 -8.3348 1.5523 100 150 255
16.2211 -8.3348 1.5622 100 150 255
16.2211 -8.3348 1.5720 100 150 255
16.2211 -8.3348 1.5818 100 150 255
16.2211 -8.3348 1.5917 100 150 255
16.2211 -8.3348 1.6015 100 150 255
16.2211 -8.3348 1.6113 100 150 255
16.2211 -8.3348 1.6212 100 150 255
16.2211 -8.3348 1.6310 100 150 255
16.2211 -8.3348 1.6409 100 150 255
16.2211 -8.3348 1.6507 100 150 255
16.2211 -8.3348 1.6605 100 150 255
16.2211 -8.3348 1.6704 100 150 255
16.2211 -8.3348 1.6802 100 150 255
16.2211 -8.3348 1.6901 100 150 255
16.2211 -8.3348 1.6999 100 150 255
16.2211 -8.3348 1.7097 100 150 255
16.2211 -8.3348 1.7196 100 150 255
16.2211 -8.3348 1.7294 100 150 255
16.2211 -8.3348 1.7393 100 150 255
16.2211 -8.3348 1.7491 100 150 255
16.2211 -8.3348 1.7589 100 150 255
16.2211 -8.3348 1.7688 100 150 255
16.2211 -8.3348 1.7786 100 150 255
16.2211 -8.3348 1.7885 100 150 255
16.2211 -8.3348 1.7983 100 150 255
16.2211 -8.3348 1.8081 100 150 255
16.2211 -8.3348 1.8180 100 150 255
16.2211 -8.3348 1.8278 100 150 255
16.2211 -8.3348 1.8377 100 150 255
16.2211 -8.3348 1.8475 100 150 255
16.2211 -8.3348 1.8573 100 150 255
16.2211 -8.3348 1.8672 100 150 255
16.2211 -8.3348 1.8770 100 150 255
16.2211 -8.3348 1.8869 100 150 255
16.2211 -8.3348 1.8967 100 150 255
16.2211 -8.3348 1.9065 100 150 255
16.2211 -8.3348 1.9164 100 150 255
16.2211 -8.3348 1.9262 100 150 255
16.2211 -8.3348 1.9361 100 150 255
16.2211 -8.3348 1.9459 100 150 255
16.2211 -8.3348 1.9557 100 150 255
16.2211 -8.3348 1.9656 100 150 255
16.2211 -8.3348 1.9754 100 150 255
16.2211 -8.3348 1.9852 100 150 255
16.2211 -8.3348 1.9951 100 150 255
15.9892 -9.8853 0.3488 255 40 40
16.0142 -9.8888 0.3488 255 40 40
16.0392 -9.8923 0.3488 255 40 40
16.0641 -9.8957 0.3488 255 40 40
16.0891 -9.8992 0.3488 255 40 40
16.1140 -9.9027 0.3488 255 40 40
16.1390 -9.9061 0.3488 255 40 40
16.1640 -9.9096 0.3488 255 40 40
16.1889 -9.9131 0.3488 255 40 40
16.2139 -9.9165 0.3488 255 40 40
16.2389 -9.9200 0.3488 255 40 40
16.2638 -9.9235 0.3488 255 40 40
16.2888 -9.9269 0.3488 255 40 40
16.3137 -9.9304 0.3488 255 40 40
16.3387 -9.9339 0.3488 255 40 40
16.3637 -9.9373 0.3488 255 40 40
16.3886 -9.9408 0.3488 255 40 40
16.4136 -9.9443 0.3488 255 40 40
16.4385 -9.9477 0.3488 255 40 40
16.4635 -9.9512 0.3488 255 40 40
16.4885 -9.9547 0.3488 255 40 40
16.5134 -9.9581 0.3488 255 40 40
16.5384 -9.9616 0.3488 255 40 40
16.5634 -9.9651 0.3488 255 40 40
16.5883 -9.9685 0.3488 255 40 40
16.6133 -9.9720 0.3488 255 40 40
16.6382 -9.9755 0.3488 255 40 40
16.6632 -9.9789 0.3488 255 40 40
16.6882 -9.9824 0.3488 255 40 40
16.7131 -9.9859 0.3488 255 40 40
16.7381 -9.9893 0.3488 255 40 40
16.7630 -9.9928 0.3488 255 40 40
16.7880 -9.9963 0.3488 255 40 40
16.8130 -9.9997 0.3488 255 40 40
16.8379 -10.0032 0.3488 255 40 40
16.8629 -10.0067 0.3488 255 40 40
16.8879 -10.0101 0.3488 255 40 40
16.9128 -10.0136 0.3488 255 40 40
16.9378 -10.0171 0.3488 255 40 40
16.9627 -10.0205 0.3488 255 40 40
16.9877 -10.0240 0.3488 255 40 40
17.0127 -10.0275 0.3488 255 40 40
17.0376 -10.0309 0.3488 255 40 40
17.0626 -10.0344 0.3488 255 40 40
17.0875 -10.0379 0.3488 255 40 40
17.1125 -10.0413 0.3488 255 40 40
17.1375 -10.0448 0.3488 255 40 40
17.1624 -10.0483 0.3488 255 40 40
17.1874 -10.0517 0.3488 255 40 40
17.2124 -10.0552 0.3488 255 40 40
17.2373 -10.0587 0.3488 255 40 40
17.2623 -10.0621 0.3488 255 40 40
17.2872 -10.0656 0.3488 255 40 40
17.3122 -10.0691 0.3488 255 40 40
17.3372 -10.0725 0.3488 255 40 40
17.3621 -10.0760 0.3488 255 40 40
17.3871 -10.0795 0.3488 255 40 40
17.4120 -10.0829 0.3488 255 40 40
17.4370 -10.0864 0.3488 255 40 40
17.4620 -10.0899 0.3488 255 40 40
17.4869 -10.0933 0.3488 255 40 40
17.5119 -10.0968 0.3488 255 40 40
17.5368 -10.1003 0.3488 255 40 40
17.5618 -10.1037 0.3488 255 40 40
17.5868 -10.1072 0.3488 255 40 40
17.6117 -10.1107 0.3488 255 40 40
17.6367 -10.1141 0.3488 255 40 40
17.6617 -10.1176 0.3488 255 40 40
17.6866 -10.1210 0.3488 255 40 40
17.7116 -10.1245 0.3488 255 40 40
17.7365 -10.1280 0.3488 255 40 40
17.7615 -10.1314 0.3488 255 40 40
17.7865 -10.1349 0.3488 255 40 40
17.8114 -10.1384 0.3488 255 40 40
17.8364 -10.1418 0.3488 255 40 40
17.8613 -10.1453 0.3488 255 40 40
17.8863 -10.1488 0.3488 255 40 40
17.9113 -10.1522 0.3488 255 40 40
17.9362 -10.1557 0.3488 255 40 40
17.9612 -10.1592 0.3488 255 40 40
17.9862 -10.1626 0.3488 255 40 40
18.0111 -10.1661 0.3488 255 40 40
18.0361 -10.1696 0.3488 255 40 40
18.0610 -10.1730 0.3488 255 40 40
18.0860 -10.1765 0.3488 255 40 40
18.1110 -10.1800 0.3488 255 40 40
18.1359 -10.1834 0.3488 255 40 40
18.1609 -10.1869 0.3488 255 40 40
18.1858 -10.1904 0.3488 255 40 40
18.2108 -10.1938 0.3488 255 40 40
18.2358 -10.1973 0.3488 255 40 40
18.2607 -10.2008 0.3488 255 40 40
18.2857 -10.2042 0.3488 255 40 40
18.3107 -10.2077 0.3488 255 40 40
18.3356 -10.2112 0.3488 255 40 40
18.3606 -10.2146 0.3488 255 40 40
18.3855 -10.2181 0.3488 255 40 40
18.4105 -10.2216 0.3488 255 40 40
18.4355 -10.2250 0.3488 255 40 40
18.4604 -10.2285 0.3488 255 40 40
18.4854 -10.2320 0.3488 255 40 40
18.5103 -10.2354 0.3488 255 40 40
18.5353 -10.2389 0.3488 255 40 40
18.5603 -10.2424 0.3488 255 40 40
18.5852 -10.2458 0.3488 255 40 40
18.6102 -10.2493 0.3488 255 40 40
18.6352 -10.2528 0.3488 255 40 40
18.6601 -10.2562 0.3488 255 40 40
18.6851 -10.2597 0.3488 255 40 40
18.7100 -10.2632 0.3488 255 40 40
18.7350 -10.2666 0.3488 255 40 40
18.7600 -10.2701 0.3488 255 40 40
18.7849 -10.2736 0.3488 255 40 40
18.8099 -10.2770 0.3488 255 40 40
18.8348 -10.2805 0.3488 255 40 40
18.8598 -10.2840 0.3488 255 40 40
18.8848 -10.2874 0.3488 255 40 40
18.9097 -10.2909 0.3488 255 40 40
18.9347 -10.2944 0.3488 255 40 40
18.9597 -10.2978 0.3488 255 40 40
18.9846 -10.3013 0.3488 255 40 40
19.0096 -10.3048 0.3488 255 40 40
19.0345 -10.3082 0.3488 255 40 40
19.0595 -10.3117 0.3488 255 40 40
19.0845 -10.3152 0.3488 255 40 40
19.1094 -10.3186 0.3488 255 40 40
19.1344 -10.3221 0.3488 255 40 40
19.1593 -10.3256 0.3488 255 40 40
19.1843 -10.3290 0.3488 255 40 40
19.2093 -10.3325 0.3488 255 40 40
19.2342 -10.3360 0.3488 255 40 40
19.2592 -10.3394 0.3488 255 40 40
19.2842 -10.3429 0.3488 255 40 40
19.3091 -10.3464 0.3488 255 40 40
19.3341 -10.3498 0.3488 255 40 40
19.3590 -10.3533 0.3488 255 40 40
19.3840 -10.3568 0.3488 255 40 40
19.4090 -10.3602 0.3488 255 40 40
19.4339 -10.3637 0.3488 255 40 40
19.4589 -10.3672 0.3488 255 40 40
19.4838 -10.3706 0.3488 255 40 40
19.5088 -10.3741 0.3488 255 40 40
19.5338 -10.3776 0.3488 255 40 40
19.5587 -10.3810 0.3488 255 40 40
19.5837 -10.3845 0.3488 255 40 40
19.6087 -10.3880 0.3488 255 40 40
19.6336 -10.3914 0.3488 255 40 40
19.6586 -10.3949 0.3488 255 40 40
19.6835 -10.3984 0.3488 255 40 40
19.7085 -10.4018 0.3488 255 40 40
19.7335 -10.4053 0.3488 255 40 40
19.7584 -10.4088 0.3488 255 40 40
19.7834 -10.4122 0.3488 255 40 40
19.8083 -10.4157 0.3488 255 40 40
19.8333 -10.4192 0.3488 255 40 40
19.8583 -10.4226 0.3488 255 40 40
19.8832 -10.4261 0.3488 255 40 40
19.9082 -10.4295 0.3488 255 40 40
19.9331 -10.4330 0.3488 255 40 40
19.9581 -10.4365 0.3488 255 40 40
19.9831 -10.4399 0.3488 255 40 40
20.0080 -10.4434 0.3488 255 40 40
20.0330 -10.4469 0.3488 255 40 40
20.0580 -10.4503 0.3488 255 40 40
20.0829 -10.4538 0.3488 255 40 40
20.1079 -10.4573 0.3488 255 40 40
20.1079 -10.4573 0.3488 255 40 40
20.1092 -10.4477 0.3488 255 40 40
20.1106 -10.4380 0.3488 255 40 40
20.1119 -10.4284 0.3488 255 40 40
20.1132 -10.4188 0.3488 255 40 40
20.1146 -10.4092 0.3488 255 40 40
20.1159 -10.3995 0.3488 255 40 40
20.1172 -10.3899 0.3488 255 40 40
20.1186 -10.3803 0.3488 255 40 40
20.1199 -10.3707 0.3488 255 40 40
20.1212 -10.3611 0.3488 255 40 40
20.1226 -10.3514 0.3488 255 40 40
20.1239 -10.3418 0.3488 255 40 40
20.1253 -10.3322 0.3488 255 40 40
20.1266 -10.3226 0.3488 255 40 40
20.1279 -10.3129 0.3488 255 40 40
20.1293 -10.3033 0.3488 255 40 40
20.1306 -10.2937 0.3488 255 40 40
20.1319 -10.2841 0.3488 255 40 40
20.1333 -10.2744 0.3488 255 40 40
20.1346 -10.2648 0.3488 255 40 40
20.1359 -10.2552 0.3488 255 40 40
20.1373 -10.2456 0.3488 255 40 40
20.1386 -10.2360 0.3488 255 40 40
20.1399 -10.2263 0.3488 255 40 40
20.1413 -10.2167 0.3488 255 40 40
20.1426 -10.2071 0.3488 255 40 40
20.1440 -10.1975 0.3488 255 40 40
20.1453 -10.1878 0.3488 255 40 40
20.1466 -10.1782 0.3488 255 40 40
20.1480 -10.1686 0.3488 255 40 40
20.1493 -10.1590 0.3488 255 40 40
20.1506 -10.1493 0.3488 255 40 40
20.1520 -10.1397 0.3488 255 40 40
20.1533 -10.1301 0.3488 255 40 40
20.1546 -10.1205 0.3488 255 40 40
20.1560 -10.1109 0.3488 255 40 40
20.1573 -10.1012 0.3488 255 40 40
20.1587 -10.0916 0.3488 255 40 40
20.1600 -10.0820 0.3488 255 40 40
20.1613 -10.0724 0.3488 255 40 40
20.1627 -10.0627 0.3488 255 40 40
20.1640 -10.0531 0.3488 255 40 40
20.1653 -10.0435 0.3488 255 40 40
20.1667 -10.0339 0.3488 255 40 40
20.1680 -10.0243 0.3488 255 40 40
20.1693 -10.0146 0.3488 255 40 40
20.1707 -10.0050 0.3488 255 40 40
20.1720 -9.9954 0.3488 255 40 40
20.1734 -9.9858 0.3488 255 40 40
20.1747 -9.9761 0.3488 255 40 40
20.1760 -9.9665 0.3488 255 40 40
20.1774 -9.9569 0.3488 255 40 40
20.1787 -9.9473 0.3488 255 40 40
20.1800 -9.9376 0.3488 255 40 40
20.1814 -9.9280 0.3488 255 40 40
20.1827 -9.9184 0.3488 255 40 40
20.1840 -9.9088 0.3488 255 40 40
20.1854 -9.8992 0.3488 255 40 40
20.1867 -9.8895 0.3488 255 40 40
20.1881 -9.8799 0.3488 255 40 40
20.1894 -9.8703 0.3488 255 40 40
20.1907 -9.8607 0.3488 255 40 40
20.1921 -9.8510 0.3488 255 40 40
20.1934 -9.8414 0.3488 255 40 40
20.1947 -9.8318 0.3488 255 40 40
20.1961 -9.8222 0.3488 255 40 40
20.1974 -9.8125 0.3488 255 40 40
20.1987 -9.8029 0.3488 255 40 40
20.2001 -9.7933 0.3488 255 40 40
20.2014 -9.7837 0.3488 255 40 40
20.2028 -9.7741 0.3488 255 40 40
20.2041 -9.7644 0.3488 255 40 40
20.2054 -9.7548 0.3488 255 40 40
20.2068 -9.7452 0.3488 255 40 40
20.2081 -9.7356 0.3488 255 40 40
20.2094 -9.7259 0.3488 255 40 40
20.2108 -9.7163 0.3488 255 40 40
20.2121 -9.7067 0.3488 255 40 40
20.2134 -9.6971 0.3488 255 40 40
20.2148 -9.6875 0.3488 255 40 40
20.2161 -9.6778 0.3488 255 40 40
20.2175 -9.6682 0.3488 255 40 40
20.2188 -9.6586 0.3488 255 40 40
20.2201 -9.6490 0.3488 255 40 40
20.2215 -9.6393 0.3488 255 40 40
20.2228 -9.6297 0.3488 255 40 40
20.2241 -9.6201 0.3488 255 40 40
20.2255 -9.6105 0.3488 255 40 40
20.2268 -9.6008 0.3488 255 40 40
20.2281 -9.5912 0.3488 255 40 40
20.2295 -9.5816 0.3488 255 40 40
20.2308 -9.5720 0.3488 255 40 40
20.2322 -9.5624 0.3488 255 40 40
20.2335 -9.5527 0.3488 255 40 40
20.2348 -9.5431 0.3488 255 40 40
20.2362 -9.5335 0.3488 255 40 40
20.2375 -9.5239 0.3488 255 40 40
20.2388 -9.5142 0.3488 255 40 40
20.2402 -9.5046 0.3488 255 40 40
20.2415 -9.4950 0.3488 255 40 40
20.2428 -9.4854 0.3488 255 40 40
20.2442 -9.4757 0.3488 255 40 40
20.2455 -9.4661 0.3488 255 40 40
20.2469 -9.4565 0.3488 255 40 40
20.2482 -9.4469 0.3488 255 40 40
20.2495 -9.4373 0.3488 255 40 40
20.2509 -9.4276 0.3488 255 40 40
20.2522 -9.4180 0.3488 255 40 40
20.2535 -9.4084 0.3488 255 40 40
20.2549 -9.3988 0.3488 255 40 40
20.2562 -9.3891 0.3488 255 40 40
20.2575 -9.3795 0.3488 255 40 40
20.2589 -9.3699 0.3488 255 40 40
20.2602 -9.3603 0.3488 255 40 40
20.2616 -9.3507 0.3488 255 40 40
20.2629 -9.3410 0.3488 255 40 40
20.2642 -9.3314 0.3488 255 40 40
20.2656 -9.3218 0.3488 255 40 40
20.2669 -9.3122 0.3488 255 40 40
20.2682 -9.3025 0.3488 255 40 40
20.2696 -9.2929 0.3488 255 40 40
20.2709 -9.2833 0.3488 255 40 40
20.2722 -9.2737 0.3488 255 40 40
20.2736 -9.2640 0.3488 255 40 40
20.2749 -9.2544 0.3488 255 40 40
20.2763 -9.2448 0.3488 255 40 40
20.2776 -9.2352 0.3488 255 40 40
20.2789 -9.2256 0.3488 255 40 40
20.2803 -9.2159 0.3488 255 40 40
20.2816 -9.2063 0.3488 255 40 40
20.2829 -9.1967 0.3488 255 40 40
20.2843 -9.1871 0.3488 255 40 40
20.2856 -9.1774 0.3488 255 40 40
20.2869 -9.1678 0.3488 255 40 40
20.2883 -9.1582 0.3488 255 40 40
20.2896 -9.1486 0.3488 255 40 40
20.2910 -9.1390 0.3488 255 40 40
20.2923 -9.1293 0.3488 255 40 40
20.2936 -9.1197 0.3488 255 40 40
20.2950 -9.1101 0.3488 255 40 40
20.2963 -9.1005 0.3488 255 40 40
20.2976 -9.0908 0.3488 255 40 40
20.2990 -9.0812 0.3488 255 40 40
20.3003 -9.0716 0.3488 255 40 40
20.3016 -9.0620 0.3488 255 40 40
20.3030 -9.0523 0.3488 255 40 40
20.3043 -9.0427 0.3488 255 40 40
20.3057 -9.0331 0.3488 255 40 40
20.3070 -9.0235 0.3488 255 40 40
20.3083 -9.0139 0.3488 255 40 40
20.3097 -9.0042 0.3488 255 40 40
20.3110 -8.9946 0.3488 255 40 40
20.3123 -8.9850 0.3488 255 40 40
20.3137 -8.9754 0.3488 255 40 40
20.3150 -8.9657 0.3488 255 40 40
20.3163 -8.9561 0.3488 255 40 40
20.3177 -8.9465 0.3488 255 40 40
20.3190 -8.9369 0.3488 255 40 40
20.3203 -8.9272 0.3488 255 40 40
20.3217 -8.9176 0.3488 255 40 40
20.3230 -8.9080 0.3488 255 40 40
20.3244 -8.8984 0.3488 255 40 40
20.3257 -8.8888 0.3488 255 40 40
20.3270 -8.8791 0.3488 255 40 40
20.3284 -8.8695 0.3488 255 40 40
20.3284 -8.8695 0.3488 255 40 40
20.3034 -8.8660 0.3488 255 40 40
20.2784 -8.8626 0.3488 255 40 40
20.2535 -8.8591 0.3488 255 40 40
20.2285 -8.8556 0.3488 255 40 40
20.2036 -8.8522 0.3488 255 40 40
20.1786 -8.8487 0.3488 255 40 40
20.1536 -8.8452 0.3488 255 40 40
20.1287 -8.8418 0.3488 255 40 40
20.1037 -8.8383 0.3488 255 40 40
20.0788 -8.8348 0.3488 255 40 40
20.0538 -8.8314 0.3488 255 40 40
20.0288 -8.8279 0.3488 255 40 40
20.0039 -8.8244 0.3488 255 40 40
19.9789 -8.8210 0.3488 255 40 40
19.9539 -8.8175 0.3488 255 40 40
19.9290 -8.8141 0.3488 255 40 40
19.9040 -8.8106 0.3488 255 40 40
19.8791 -8.8071 0.3488 255 40 40
19.8541 -8.8037 0.3488 255 40 40
19.8291 -8.8002 0.3488 255 40 40
19.8042 -8.7967 0.3488 255 40 40
19.7792 -8.7933 0.3488 255 40 40
19.7543 -8.7898 0.3488 255 40 40
19.7293 -8.7863 0.3488 255 40 40
19.7043 -8.7829 0.3488 255 40 40
19.6794 -8.7794 0.3488 255 40 40
19.6544 -8.7759 0.3488 255 40 40
19.6294 -8.7725 0.3488 255 40 40
19.6045 -8.7690 0.3488 255 40 40
19.5795 -8.7655 0.3488 255 40 40
19.5546 -8.7621 0.3488 255 40 40
19.5296 -8.7586 0.3488 255 40 40
19.5046 -8.7551 0.3488 255 40 40
19.4797 -8.7517 0.3488 255 40 40
19.4547 -8.7482 0.3488 255 40 40
19.4298 -8.7447 0.3488 255 40 40
19.4048 -8.7413 0.3488 255 40 40
19.3798 -8.7378 0.3488 255 40 40
19.3549 -8.7343 0.3488 255 40 40
19.3299 -8.7309 0.3488 255 40 40
19.3049 -8.7274 0.3488 255 40 40
19.2800 -8.7239 0.3488 255 40 40
19.2550 -8.7205 0.3488 255 40 40
19.2301 -8.7170 0.3488 255 40 40
19.2051 -8.7135 0.3488 255 40 40
19.1801 -8.7101 0.3488 255 40 40
19.1552 -8.7066 0.3488 255 40 40
19.1302 -8.7031 0.3488 255 40 40
19.1053 -8.6997 0.3488 255 40 40
19.0803 -8.6962 0.3488 255 40 40
19.0553 -8.6927 0.3488 255 40 40
19.0304 -8.6893 0.3488 255 40 40
19.0054 -8.6858 0.3488 255 40 40
18.9804 -8.6823 0.3488 255 40 40
18.9555 -8.6789 0.3488 255 40 40
18.9305 -8.6754 0.3488 255 40 40
18.9056 -8.6719 0.3488 255 40 40
18.8806 -8.6685 0.3488 255 40 40
18.8556 -8.6650 0.3488 255 40 40
18.8307 -8.6615 0.3488 255 40 40
18.8057 -8.6581 0.3488 255 40 40
18.7808 -8.6546 0.3488 255 40 40
18.7558 -8.6511 0.3488 255 40 40
18.7308 -8.6477 0.3488 255 40 40
18.7059 -8.6442 0.3488 255 40 40
18.6809 -8.6407 0.3488 255 40 40
18.6560 -8.6373 0.3488 255 40 40
18.6310 -8.6338 0.3488 255 40 40
18.6060 -8.6303 0.3488 255 40 40
18.5811 -8.6269 0.3488 255 40 40
18.5561 -8.6234 0.3488 255 40 40
18.5311 -8.6199 0.3488 255 40 40
18.5062 -8.6165 0.3488 255 40 40
18.4812 -8.6130 0.3488 255 40 40
18.4563 -8.6095 0.3488 255 40 40
18.4313 -8.6061 0.3488 255 40 40
18.4063 -8.6026 0.3488 255 40 40
18.3814 -8.5991 0.3488 255 40 40
18.3564 -8.5957 0.3488 255 40 40
18.3315 -8.5922 0.3488 255 40 40
18.3065 -8.5887 0.3488 255 40 40
18.2815 -8.5853 0.3488 255 40 40
18.2566 -8.5818 0.3488 255 40 40
18.2316 -8.5783 0.3488 255 40 40
18.2066 -8.5749 0.3488 255 40 40
18.1817 -8.5714 0.3488 255 40 40
18.1567 -8.5679 0.3488 255 40 40
18.1318 -8.5645 0.3488 255 40 40
18.1068 -8.5610 0.3488 255 40 40
18.0818 -8.5575 0.3488 255 40 40
18.0569 -8.5541 0.3488 255 40 40
18.0319 -8.5506 0.3488 255 40 40
18.0070 -8.5471 0.3488 255 40 40
17.9820 -8.5437 0.3488 255 40 40
17.9570 -8.5402 0.3488 255 40 40
17.9321 -8.5367 0.3488 255 40 40
17.9071 -8.5333 0.3488 255 40 40
17.8821 -8.5298 0.3488 255 40 40
17.8572 -8.5264 0.3488 255 40 40
17.8322 -8.5229 0.3488 255 40 40
17.8073 -8.5194 0.3488 255 40 40
17.7823 -8.5160 0.3488 255 40 40
17.7573 -8.5125 0.3488 255 40 40
17.7324 -8.5090 0.3488 255 40 40
17.7074 -8.5056 0.3488 255 40 40
17.6825 -8.5021 0.3488 255 40 40
17.6575 -8.4986 0.3488 255 40 40
17.6325 -8.4952 0.3488 255 40 40
17.6076 -8.4917 0.3488 255 40 40
17.5826 -8.4882 0.3488 255 40 40
17.5576 -8.4848 0.3488 255 40 40
17.5327 -8.4813 0.3488 255 40 40
17.5077 -8.4778 0.3488 255 40 40
17.4828 -8.4744 0.3488 255 40 40
17.4578 -8.4709 0.3488 255 40 40
17.4328 -8.4674 0.3488 255 40 40
17.4079 -8.4640 0.3488 255 40 40
17.3829 -8.4605 0.3488 255 40 40
17.3580 -8.4570 0.3488 255 40 40
17.3330 -8.4536 0.3488 255 40 40
17.3080 -8.4501 0.3488 255 40 40
17.2831 -8.4466 0.3488 255 40 40
17.2581 -8.4432 0.3488 255 40 40
17.2331 -8.4397 0.3488 255 40 40
17.2082 -8.4362 0.3488 255 40 40
17.1832 -8.4328 0.3488 255 40 40
17.1583 -8.4293 0.3488 255 40 40
17.1333 -8.4258 0.3488 255 40 40
17.1083 -8.4224 0.3488 255 40 40
17.0834 -8.4189 0.3488 255 40 40
17.0584 -8.4154 0.3488 255 40 40
17.0335 -8.4120 0.3488 255 40 40
17.0085 -8.4085 0.3488 255 40 40
16.9835 -8.4050 0.3488 255 40 40
16.9586 -8.4016 0.3488 255 40 40
16.9336 -8.3981 0.3488 255 40 40
16.9086 -8.3946 0.3488 255 40 40
16.8837 -8.3912 0.3488 255 40 40
16.8587 -8.3877 0.3488 255 40 40
16.8338 -8.3842 0.3488 255 40 40
16.8088 -8.3808 0.3488 255 40 40
16.7838 -8.3773 0.3488 255 40 40
16.7589 -8.3738 0.3488 255 40 40
16.7339 -8.3704 0.3488 255 40 40
16.7090 -8.3669 0.3488 255 40 40
16.6840 -8.3634 0.3488 255 40 40
16.6590 -8.3600 0.3488 255 40 40
16.6341 -8.3565 0.3488 255 40 40
16.6091 -8.3530 0.3488 255 40 40
16.5842 -8.3496 0.3488 255 40 40
16.5592 -8.3461 0.3488 255 40 40
16.5342 -8.3426 0.3488 255 40 40
16.5093 -8.3392 0.3488 255 40 40
16.4843 -8.3357 0.3488 255 40 40
16.4593 -8.3322 0.3488 255 40 40
16.4344 -8.3288 0.3488 255 40 40
16.4094 -8.3253 0.3488 255 40 40
16.3845 -8.3218 0.3488 255 40 40
16.3595 -8.3184 0.3488 255 40 40
16.3345 -8.3149 0.3488 255 40 40
16.3096 -8.3114 0.3488 255 40 40
16.2846 -8.3080 0.3488 255 40 40
16.2597 -8.3045 0.3488 255 40 40
16.2347 -8.3010 0.3488 255 40 40
16.2097 -8.2976 0.3488 255 40 40
16.2097 -8.2976 0.3488 255 40 40
16.2084 -8.3072 0.3488 255 40 40
16.2071 -8.3168 0.3488 255 40 40
16.2057 -8.3264 0.3488 255 40 40
16.2044 -8.3361 0.3488 255 40 40
16.2030 -8.3457 0.3488 255 40 40
16.2017 -8.3553 0.3488 255 40 40
16.2004 -8.3649 0.3488 255 40 40
16.1990 -8.3746 0.3488 255 40 40
16.1977 -8.3842 0.3488 255 40 40
16.1964 -8.3938 0.3488 255 40 40
16.1950 -8.4034 0.3488 255 40 40
16.1937 -8.4130 0.3488 255 40 40
16.1924 -8.4227 0.3488 255 40 40
16.1910 -8.4323 0.3488 255 40 40
16.1897 -8.4419 0.3488 255 40 40
16.1883 -8.4515 0.3488 255 40 40
16.1870 -8.4612 0.3488 255 40 40
16.1857 -8.4708 0.3488 255 40 40
16.1843 -8.4804 0.3488 255 40 40
16.1830 -8.4900 0.3488 255 40 40
16.1817 -8.4997 0.3488 255 40 40
16.1803 -8.5093 0.3488 255 40 40
16.1790 -8.5189 0.3488 255 40 40
16.1777 -8.5285 0.3488 255 40 40
16.1763 -8.5381 0.3488 255 40 40
16.1750 -8.5478 0.3488 255 40 40
16.1736 -8.5574 0.3488 255 40 40
16.1723 -8.5670 0.3488 255 40 40
16.1710 -8.5766 0.3488 255 40 40
16.1696 -8.5863 0.3488 255 40 40
16.1683 -8.5959 0.3488 255 40 40
16.1670 -8.6055 0.3488 255 40 40
16.1656 -8.6151 0.3488 255 40 40
16.1643 -8.6248 0.3488 255 40 40
16.1630 -8.6344 0.3488 255 40 40
16.1616 -8.6440 0.3488 255 40 40
16.1603 -8.6536 0.3488 255 40 40
16.1589 -8.6632 0.3488 255 40 40
16.1576 -8.6729 0.3488 255 40 40
16.1563 -8.6825 0.3488 255 40 40
16.1549 -8.6921 0.3488 255 40 40
16.1536 -8.7017 0.3488 255 40 40
16.1523 -8.7114 0.3488 255 40 40
16.1509 -8.7210 0.3488 255 40 40
16.1496 -8.7306 0.3488 255 40 40
16.1483 -8.7402 0.3488 255 40 40
16.1469 -8.7498 0.3488 255 40 40
16.1456 -8.7595 0.3488 255 40 40
16.1443 -8.7691 0.3488 255 40 40
16.1429 -8.7787 0.3488 255 40 40
16.1416 -8.7883 0.3488 255 40 40
16.1402 -8.7980 0.3488 255 40 40
16.1389 -8.8076 0.3488 255 40 40
16.1376 -8.8172 0.3488 255 40 40
16.1362 -8.8268 0.3488 255 40 40
16.1349 -8.8365 0.3488 255 40 40
16.1336 -8.8461 0.3488 255 40 40
16.1322 -8.8557 0.3488 255 40 40
16.1309 -8.8653 0.3488 255 40 40
16.1296 -8.8749 0.3488 255 40 40
16.1282 -8.8846 0.3488 255 40 40
16.1269 -8.8942 0.3488 255 40 40
16.1255 -8.9038 0.3488 255 40 40
16.1242 -8.9134 0.3488 255 40 40
16.1229 -8.9231 0.3488 255 40 40
16.1215 -8.9327 0.3488 255 40 40
16.1202 -8.9423 0.3488 255 40 40
16.1189 -8.9519 0.3488 255 40 40
16.1175 -8.9616 0.3488 255 40 40
16.1162 -8.9712 0.3488 255 40 40
16.1149 -8.9808 0.3488 255 40 40
16.1135 -8.9904 0.3488 255 40 40
16.1122 -9.0000 0.3488 255 40 40
16.1108 -9.0097 0.3488 255 40 40
16.1095 -9.0193 0.3488 255 40 40
16.1082 -9.0289 0.3488 255 40 40
16.1068 -9.0385 0.3488 255 40 40
16.1055 -9.0482 0.3488 255 40 40
16.1042 -9.0578 0.3488 255 40 40
16.1028 -9.0674 0.3488 255 40 40
16.1015 -9.0770 0.3488 255 40 40
16.1002 -9.0866 0.3488 255 40 40
16.0988 -9.0963 0.3488 255 40 40
16.0975 -9.1059 0.3488 255 40 40
16.0961 -9.1155 0.3488 255 40 40
16.0948 -9.1251 0.3488 255 40 40
16.0935 -9.1348 0.3488 255 40 40
16.0921 -9.1444 0.3488 255 40 40
16.0908 -9.1540 0.3488 255 40 40
16.0895 -9.1636 0.3488 255 40 40
16.0881 -9.1733 0.3488 255 40 40
16.0868 -9.1829 0.3488 255 40 40
16.0855 -9.1925 0.3488 255 40 40
16.0841 -9.2021 0.3488 255 40 40
16.0828 -9.2117 0.3488 255 40 40
16.0814 -9.2214 0.3488 255 40 40
16.0801 -9.2310 0.3488 255 40 40
16.0788 -9.2406 0.3488 255 40 40
16.0774 -9.2502 0.3488 255 40 40
16.0761 -9.2599 0.3488 255 40 40
16.0748 -9.2695 0.3488 255 40 40
16.0734 -9.2791 0.3488 255 40 40
16.0721 -9.2887 0.3488 255 40 40
16.0708 -9.2983 0.3488 255 40 40
16.0694 -9.3080 0.3488 255 40 40
16.0681 -9.3176 0.3488 255 40 40
16.0667 -9.3272 0.3488 255 40 40
16.0654 -9.3368 0.3488 255 40 40
16.0641 -9.3465 0.3488 255 40 40
16.0627 -9.3561 0.3488 255 40 40
16.0614 -9.3657 0.3488 255 40 40
16.0601 -9.3753 0.3488 255 40 40
16.0587 -9.3850 0.3488 255 40 40
16.0574 -9.3946 0.3488 255 40 40
16.0561 -9.4042 0.3488 255 40 40
16.0547 -9.4138 0.3488 255 40 40
16.0534 -9.4234 0.3488 255 40 40
16.0520 -9.4331 0.3488 255 40 40
16.0507 -9.4427 0.3488 255 40 40
16.0494 -9.4523 0.3488 255 40 40
16.0480 -9.4619 0.3488 255 40 40
16.0467 -9.4716 0.3488 255 40 40
16.0454 -9.4812 0.3488 255 40 40
16.0440 -9.4908 0.3488 255 40 40
16.0427 -9.5004 0.3488 255 40 40
16.0414 -9.5101 0.3488 255 40 40
16.0400 -9.5197 0.3488 255 40 40
16.0387 -9.5293 0.3488 255 40 40
16.0373 -9.5389 0.3488 255 40 40
16.0360 -9.5485 0.3488 255 40 40
16.0347 -9.5582 0.3488 255 40 40
16.0333 -9.5678 0.3488 255 40 40
16.0320 -9.5774 0.3488 255 40 40
16.0307 -9.5870 0.3488 255 40 40
16.0293 -9.5967 0.3488 255 40 40
16.0280 -9.6063 0.3488 255 40 40
16.0267 -9.6159 0.3488 255 40 40
16.0253 -9.6255 0.3488 255 40 40
16.0240 -9.6351 0.3488 255 40 40
16.0226 -9.6448 0.3488 255 40 40
16.0213 -9.6544 0.3488 255 40 40
16.0200 -9.6640 0.3488 255 40 40
16.0186 -9.6736 0.3488 255 40 40
16.0173 -9.6833 0.3488 255 40 40
16.0160 -9.6929 0.3488 255 40 40
16.0146 -9.7025 0.3488 255 40 40
16.0133 -9.7121 0.3488 255 40 40
16.0120 -9.7218 0.3488 255 40 40
16.0106 -9.7314 0.3488 255 40 40
16.0093 -9.7410 0.3488 255 40 40
16.0079 -9.7506 0.3488 255 40 40
16.0066 -9.7602 0.3488 255 40 40
16.0053 -9.7699 0.3488 255 40 40
16.0039 -9.7795 0.3488 255 40 40
16.0026 -9.7891 0.3488 255 40 40
16.0013 -9.7987 0.3488 255 40 40
15.9999 -9.8084 0.3488 255 40 40
15.9986 -9.8180 0.3488 255 40 40
15.9973 -9.8276 0.3488 255 40 40
15.9959 -9.8372 0.3488 255 40 40
15.9946 -9.8469 0.3488 255 40 40
15.9932 -9.8565 0.3488 255 40 40
15.9919 -9.8661 0.3488 255 40 40
15.9906 -9.8757 0.3488 255 40 40
15.9892 -9.8853 0.3488 255 40 40
15.9892 -9.8853 1.9808 255 40 40
16.0142 -9.8888 1.9808 255 40 40
16.0392 -9.8923 1.9808 255 40 40
16.0641 -9.8957 1.9808 255 40 40
16.0891 -9.8992 1.9808 255 40 40
16.1140 -9.9027 1.9808 255 40 40
16.1390 -9.9061 1.9808 255 40 40
16.1640 -9.9096 1.9808 255 40 40
16.1889 -9.9131 1.9808 255 40 40
16.2139 -9.9165 1.9808 255 40 40
16.2389 -9.9200 1.9808 255 40 40
16.2638 -9.9235 1.9808 255 40 40
16.2888 -9.9269 1.9808 255 40 40
16.3137 -9.9304 1.9808 255 40 40
16.3387 -9.9339 1.9808 255 40 40
16.3637 -9.9373 1.9808 255 40 40
16.3886 -9.9408 1.9808 255 40 40
16.4136 -9.9443 1.9808 255 40 40
16.4385 -9.9477 1.9808 255 40 40
16.4635 -9.9512 1.9808 255 40 40
16.4885 -9.9547 1.9808 255 40 40
16.5134 -9.9581 1.9808 255 40 40
16.5384 -9.9616 1.9808 255 40 40
16.5634 -9.9651 1.9808 255 40 40
16.5883 -9.9685 1.9808 255 40 40
16.6133 -9.9720 1.9808 255 40 40
16.6382 -9.9755 1.9808 255 40 40
16.6632 -9.9789 1.9808 255 40 40
16.6882 -9.9824 1.9808 255 40 40
16.7131 -9.9859 1.9808 255 40 40
16.7381 -9.9893 1.9808 255 40 40
16.7630 -9.9928 1.9808 255 40 40
16.7880 -9.9963 1.9808 255 40 40
16.8130 -9.9997 1.9808 255 40 40
16.8379 -10.0032 1.9808 255 40 40
16.8629 -10.0067 1.9808 255 40 40
16.8879 -10.0101 1.9808 255 40 40
16.9128 -10.0136 1.9808 255 40 40
16.9378 -10.0171 1.9808 255 40 40
16.9627 -10.0205 1.9808 255 40 40
16.9877 -10.0240 1.9808 255 40 40
17.0127 -10.0275 1.9808 255 40 40
17.0376 -10.0309 1.9808 255 40 40
17.0626 -10.0344 1.9808 255 40 40
17.0875 -10.0379 1.9808 255 40 40
17.1125 -10.0413 1.9808 255 40 40
17.1375 -10.0448 1.9808 255 40 40
17.1624 -10.0483 1.9808 255 40 40
17.1874 -10.0517 1.9808 255 40 40
17.2124 -10.0552 1.9808 255 40 40
17.2373 -10.0587 1.9808 255 40 40
17.2623 -10.0621 1.9808 255 40 40
17.2872 -10.0656 1.9808 255 40 40
17.3122 -10.0691 1.9808 255 40 40
17.3372 -10.0725 1.9808 255 40 40
17.3621 -10.0760 1.9808 255 40 40
17.3871 -10.0795 1.9808 255 40 40
17.4120 -10.0829 1.9808 255 40 40
17.4370 -10.0864 1.9808 255 40 40
17.4620 -10.0899 1.9808 255 40 40
17.4869 -10.0933 1.9808 255 40 40
17.5119 -10.0968 1.9808 255 40 40
17.5368 -10.1003 1.9808 255 40 40
17.5618 -10.1037 1.9808 255 40 40
17.5868 -10.1072 1.9808 255 40 40
17.6117 -10.1107 1.9808 255 40 40
17.6367 -10.1141 1.9808 255 40 40
17.6617 -10.1176 1.9808 255 40 40
17.6866 -10.1210 1.9808 255 40 40
17.7116 -10.1245 1.9808 255 40 40
17.7365 -10.1280 1.9808 255 40 40
17.7615 -10.1314 1.9808 255 40 40
17.7865 -10.1349 1.9808 255 40 40
17.8114 -10.1384 1.9808 255 40 40
17.8364 -10.1418 1.9808 255 40 40
17.8613 -10.1453 1.9808 255 40 40
17.8863 -10.1488 1.9808 255 40 40
17.9113 -10.1522 1.9808 255 40 40
17.9362 -10.1557 1.9808 255 40 40
17.9612 -10.1592 1.9808 255 40 40
17.9862 -10.1626 1.9808 255 40 40
18.0111 -10.1661 1.9808 255 40 40
18.0361 -10.1696 1.9808 255 40 40
18.0610 -10.1730 1.9808 255 40 40
18.0860 -10.1765 1.9808 255 40 40
18.1110 -10.1800 1.9808 255 40 40
18.1359 -10.1834 1.9808 255 40 40
18.1609 -10.1869 1.9808 255 40 40
18.1858 -10.1904 1.9808 255 40 40
18.2108 -10.1938 1.9808 255 40 40
18.2358 -10.1973 1.9808 255 40 40
18.2607 -10.2008 1.9808 255 40 40
18.2857 -10.2042 1.9808 255 40 40
18.3107 -10.2077 1.9808 255 40 40
18.3356 -10.2112 1.9808 255 40 40
18.3606 -10.2146 1.9808 255 40 40
18.3855 -10.2181 1.9808 255 40 40
18.4105 -10.2216 1.9808 255 40 40
18.4355 -10.2250 1.9808 255 40 40
18.4604 -10.2285 1.9808 255 40 40
18.4854 -10.2320 1.9808 255 40 40
18.5103 -10.2354 1.9808 255 40 40
18.5353 -10.2389 1.9808 255 40 40
18.5603 -10.2424 1.9808 255 40 40
18.5852 -10.2458 1.9808 255 40 40
18.6102 -10.2493 1.9808 255 40 40
18.6352 -10.2528 1.9808 255 40 40
18.6601 -10.2562 1.9808 255 40 40
18.6851 -10.2597 1.9808 255 40 40
18.7100 -10.2632 1.9808 255 40 40
18.7350 -10.2666 1.9808 255 40 40
18.7600 -10.2701 1.9808 255 40 40
18.7849 -10.2736 1.9808 255 40 40
18.8099 -10.2770 1.9808 255 40 40
18.8348 -10.2805 1.9808 255 40 40
18.8598 -10.2840 1.9808 255 40 40
18.8848 -10.2874 1.9808 255 40 40
18.9097 -10.2909 1.9808 255 40 40
18.9347 -10.2944 1.9808 255 40 40
18.9597 -10.2978 1.9808 255 40 40
18.9846 -10.3013 1.9808 255 40 40
19.0096 -10.3048 1.9808 255 40 40
19.0345 -10.3082 1.9808 255 40 40
19.0595 -10.3117 1.9808 255 40 40
19.0845 -10.3152 1.9808 255 40 40
19.1094 -10.3186 1.9808 255 40 40
19.1344 -10.3221 1.9808 255 40 40
19.1593 -10.3256 1.9808 255 40 40
19.1843 -10.3290 1.9808 255 40 40
19.2093 -10.3325 1.9808 255 40 40
