ply
format ascii 1.0
element vertex 1479
property float x
property float y
property float z
property uchar red
property uchar green
property uchar blue
end_header
24.1189 6.7250 1.2460 100 150 255
24.1189 6.7250 1.2583 100 150 255
24.1189 6.7250 1.2706 100 150 255
24.1189 6.7250 1.2830 100 150 255
24.1189 6.7250 1.2953 100 150 255
24.1189 6.7250 1.3077 100 150 255
24.1189 6.7250 1.3200 100 150 255
24.1189 6.7250 1.3324 100 150 255
24.1189 6.7250 1.3447 100 150 255
24.1189 6.7250 1.3571 100 150 255
24.1189 6.7250 1.3694 100 150 255
24.1189 6.7250 1.3817 100 150 255
24.1189 6.7250 1.3941 100 150 255
24.1189 6.7250 1.4064 100 150 255
24.1189 6.7250 1.4188 100 150 255
24.1189 6.7250 1.4311 100 150 255
24.1189 6.7250 1.4435 100 150 255
24.1189 6.7250 1.4558 100 150 255
24.1189 6.7250 1.4682 100 150 255
24.1189 6.7250 1.4805 100 150 255
24.1189 6.7250 1.4928 100 150 255
24.1189 6.7250 1.5052 100 150 255
24.1189 6.7250 1.5175 100 150 255
24.1189 6.7250 1.5299 100 150 255
24.1189 6.7250 1.5422 100 150 255
24.1189 6.7250 1.5546 100 150 255
24.1189 6.7250 1.5669 100 150 255
24.1189 6.7250 1.5793 100 150 255
24.1189 6.7250 1.5916 100 150 255
24.1189 6.7250 1.6039 100 150 255
24.1189 6.7250 1.6163 100 150 255
24.1189 6.7250 1.6286 100 150 255
24.1189 6.7250 1.6410 100 150 255
24.1189 6.7250 1.6533 100 150 255
24.1189 6.7250 1.6657 100 150 255
24.1189 6.7250 1.6780 100 150 255
24.1189 6.7250 1.6904 100 150 255
24.1189 6.7250 1.7027 100 150 255
24.1189 6.7250 1.7150 100 150 255
24.1189 6.7250 1.7274 100 150 255
24.1189 6.7250 1.7397 100 150 255
24.1189 6.7250 1.7521 100 150 255
24.1189 6.7250 1.7644 100 150 255
24.1189 6.7250 1.7768 100 150 255
24.1189 6.7250 1.7891 100 150 255
24.1189 6.7250 1.8015 100 150 255
24.1189 6.7250 1.8138 100 150 255
24.1189 6.7250 1.8261 100 150 255
24.1189 6.7250 1.8385 100 150 255
24.1189 6.7250 1.8508 100 150 255
24.1189 6.7250 1.8632 100 150 255
24.1189 6.7250 1.8755 100 150 255
24.1189 6.7250 1.8879 100 150 255
24.1189 6.7250 1.9002 100 150 255
24.1189 6.7250 1.9126 100 150 255
24.1189 6.7250 1.9249 100 150 255
24.1189 6.7250 1.9372 100 150 255
24.1189 6.7250 1.9496 100 150 255
24.1189 6.7250 1.9619 100 150 255
24.1189 6.7250 1.9743 100 150 255
24.1189 6.7250 1.9866 100 150 255
24.1189 6.7250 1.9990 100 150 255
24.1189 6.7250 2.0113 100 150 255
24.1189 6.7250 2.0237 100 150 255
24.1189 6.7250 2.0360 100 150 255
24.1189 6.7250 2.0483 100 150 255
24.1189 6.7250 2.0607 100 150 255
24.1189 6.7250 2.0730 100 150 255
24.1189 6.7250 2.0854 100 150 255
24.1189 6.7250 2.0977 100 150 255
24.1189 6.7250 2.1101 100 150 255
24.1189 6.7250 2.1224 100 150 255
24.1189 6.7250 2.1348 100 150 255
24.1189 6.7250 2.1471 100 150 255
24.1189 6.7250 2.1594 100 150 255
24.1189 6.7250 2.1718 100 150 255
24.1189 6.7250 2.1841 100 150 255
20.0521 4.4208 0.1473 100 150 255
20.0521 4.4208 0.1596 100 150 255
20.0521 4.4208 0.1720 100 150 255
20.0521 4.4208 0.1843 100 150 255
20.0521 4.4208 0.1967 100 150 255
20.0521 4.4208 0.2090 100 150 255
20.0521 4.4208 0.2214 100 150 255
20.0521 4.4208 0.2337 100 150 255
20.0521 4.4208 0.2460 100 150 255
20.0521 4.4208 0.2584 100 150 255
20.0521 4.4208 0.2707 100 150 255
20.0521 4.4208 0.2831 100 150 255
20.0521 4.4208 0.2954 100 150 255
20.0521 4.4208 0.3078 100 150 255
20.0521 4.4208 0.3201 100 150 255
20.0521 4.4208 0.3325 100 150 255
20.0521 4.4208 0.3448 100 150 255
20.0521 4.4208 0.3571 100 150 255
20.0521 4.4208 0.3695 100 150 255
20.0521 4.4208 0.3818 100 150 255
20.0521 4.4208 0.3942 100 150 255
20.0521 4.4208 0.4065 100 150 255
20.0521 4.4208 0.4189 100 150 255
20.0521 4.4208 0.4312 100 150 255
20.0521 4.4208 0.4436 100 150 255
20.0521 4.4208 0.4559 100 150 255
20.0521 4.4208 0.4682 100 150 255
20.0521 4.4208 0.4806 100 150 255
20.0521 4.4208 0.4929 100 150 255
20.0521 4.4208 0.5053 100 150 255
20.0521 4.4208 0.5176 100 150 255
20.0521 4.4208 0.5300 100 150 255
20.0521 4.4208 0.5423 100 150 255
20.0521 4.4208 0.5547 100 150 255
20.0521 4.4208 0.5670 100 150 255
20.0521 4.4208 0.5793 100 150 255
20.0521 4.4208 0.5917 100 150 255
20.0521 4.4208 0.6040 100 150 255
20.0521 4.4208 0.6164 100 150 255
20.0521 4.4208 0.6287 100 150 255
20.0521 4.4208 0.6411 100 150 255
20.0521 4.4208 0.6534 100 150 255
20.0521 4.4208 0.6658 100 150 255
20.0521 4.4208 0.6781 100 150 255
20.0521 4.4208 0.6904 100 150 255
20.0521 4.4208 0.7028 100 150 255
20.0521 4.4208 0.7151 100 150 255
20.0521 4.4208 0.7275 100 150 255
20.0521 4.4208 0.7398 100 150 255
20.0521 4.4208 0.7522 100 150 255
20.0521 4.4208 0.7645 100 150 255
20.0521 4.4208 0.7769 100 150 255
20.0521 4.4208 0.7892 100 150 255
20.0521 4.4208 0.8015 100 150 255
20.0521 4.4208 0.8139 100 150 255
20.0521 4.4208 0.8262 100 150 255
20.0521 4.4208 0.8386 100 150 255
20.0521 4.4208 0.8509 100 150 255
20.0521 4.4208 0.8633 100 150 255
20.0521 4.4208 0.8756 100 150 255
20.0521 4.4208 0.8880 100 150 255
20.0521 4.4208 0.9003 100 150 255
20.0521 4.4208 0.9127 100 150 255
20.0521 4.4208 0.9250 100 150 255
20.0521 4.4208 0.9373 100 150 255
20.0521 4.4208 0.9497 100 150 255
20.0521 4.4208 0.9620 100 150 255
20.0521 4.4208 0.9744 100 150 255
20.0521 4.4208 0.9867 100 150 255
20.0521 4.4208 0.9991 100 150 255
20.0521 4.4208 1.0114 100 150 255
20.0521 4.4208 1.0238 100 150 255
20.0521 4.4208 1.0361 100 150 255
20.0521 4.4208 1.0484 100 150 255
20.0521 4.4208 1.0608 100 150 255
20.0521 4.4208 1.0731 100 150 255
20.0521 4.4208 1.0855 100 150 255
20.0521 4.4208 1.0978 100 150 255
20.0521 4.4208 1.1102 100 150 255
20.0521 4.4208 1.1225 100 150 255
20.0521 4.4208 1.1349 100 150 255
20.0521 4.4208 1.1472 100 150 255
20.0521 4.4208 1.1595 100 150 255
20.0521 4.4208 1.1719 100 150 255
20.0521 4.4208 1.1842 100 150 255
20.0521 4.4208 1.1966 100 150 255
20.0521 4.4208 1.2089 100 150 255
20.0521 4.4208 1.2213 100 150 255
20.0521 4.4208 1.2336 100 150 255
20.0521 4.4208 1.2460 100 150 255
20.0521 4.4208 1.2583 100 150 255
20.0521 4.4208 1.2706 100 150 255
20.0521 4.4208 1.2830 100 150 255
20.0521 4.4208 1.2953 100 150 255
20.0521 4.4208 1.3077 100 150 255
20.0521 4.4208 1.3200 100 150 255
20.0521 4.4208 1.3324 100 150 255
20.0521 4.4208 1.3447 100 150 255
20.0521 4.4208 1.3571 100 150 255
20.0521 4.4208 1.3694 100 150 255
20.0521 4.4208 1.3817 100 150 255
20.0521 4.4208 1.3941 100 150 255
20.0521 4.4208 1.4064 100 150 255
20.0521 4.4208 1.4188 100 150 255
20.0521 4.4208 1.4311 100 150 255
20.0521 4.4208 1.4435 100 150 255
20.0521 4.4208 1.4558 100 150 255
20.0521 4.4208 1.4682 100 150 255
20.0521 4.4208 1.4805 100 150 255
20.0521 4.4208 1.4928 100 150 255
20.0521 4.4208 1.5052 100 150 255
20.0521 4.4208 1.5175 100 150 255
20.0521 4.4208 1.5299 100 150 255
20.0521 4.4208 1.5422 100 150 255
20.0521 4.4208 1.5546 100 150 255
20.0521 4.4208 1.5669 100 150 255
20.0521 4.4208 1.5793 100 150 255
20.0521 4.4208 1.5916 100 150 255
20.0521 4.4208 1.6039 100 150 255
20.0521 4.4208 1.6163 100 150 255
20.0521 4.4208 1.6286 100 150 255
20.0521 4.4208 1.6410 100 150 255
20.0521 4.4208 1.6533 100 150 255
20.0521 4.4208 1.6657 100 150 255
20.0521 4.4208 1.6780 100 150 255
20.0521 4.4208 1.6904 100 150 255
20.0521 4.4208 1.7027 100 150 255
20.0521 4.4208 1.7150 100 150 255
20.0521 4.4208 1.7274 100 150 255
20.0521 4.4208 1.7397 100 150 255
20.0521 4.4208 1.7521 100 150 255
20.0521 4.4208 1.7644 100 150 255
20.0521 4.4208 1.7768 100 150 255
20.0521 4.4208 1.7891 100 150 255
20.0521 4.4208 1.8015 100 150 255
20.0521 4.4208 1.8138 100 150 255
20.0521 4.4208 1.8261 100 150 255
20.0521 4.4208 1.8385 100 150 255
20.0521 4.4208 1.8508 100 150 255
20.0521 4.4208 1.8632 100 150 255
20.0521 4.4208 1.8755 100 150 255
20.0521 4.4208 1.8879 100 150 255
20.0521 4.4208 1.9002 100 150 255
20.0521 4.4208 1.9126 100 150 255
20.0521 4.4208 1.9249 100 150 255
20.0521 4.4208 1.9372 100 150 255
20.0521 4.4208 1.9496 100 150 255
20.0521 4.4208 1.9619 100 150 255
20.0521 4.4208 1.9743 100 150 255
20.0521 4.4208 1.9866 100 150 255
20.0521 4.4208 1.9990 100 150 255
20.0521 4.4208 2.0113 100 150 255
20.0521 4.4208 2.0237 100 150 255
20.0521 4.4208 2.0360 100 150 255
20.0521 4.4208 2.0483 100 150 255
20.0521 4.4208 2.0607 100 150 255
20.0521 4.4208 2.0730 100 150 255
20.0521 4.4208 2.0854 100 150 255
20.0521 4.4208 2.0977 100 150 255
20.0521 4.4208 2.1101 100 150 255
20.0521 4.4208 2.1224 100 150 255
20.0521 4.4208 2.1348 100 150 255
20.0521 4.4208 2.1471 100 150 255
20.0521 4.4208 2.1594 100 150 255
20.0521 4.4208 2.1718 100 150 255
20.0521 4.4208 2.1841 100 150 255
21.0413 2.7671 0.1521 255 40 40
21.0662 2.7807 0.1521 255 40 40
21.0910 2.7942 0.1521 255 40 40
21.1158 2.8077 0.1521 255 40 40
21.1407 2.8213 0.1521 255 40 40
21.1655 2.8348 0.1521 255 40 40
21.1903 2.8483 0.1521 255 40 40
21.2151 2.8619 0.1521 255 40 40
21.2400 2.8754 0.1521 255 40 40
21.2648 2.8890 0.1521 255 40 40
21.2896 2.9025 0.1521 255 40 40
21.3145 2.9160 0.1521 255 40 40
21.3393 2.9296 0.1521 255 40 40
21.3641 2.9431 0.1521 255 40 40
21.3890 2.9566 0.1521 255 40 40
21.4138 2.9702 0.1521 255 40 40
21.4386 2.9837 0.1521 255 40 40
21.4634 2.9972 0.1521 255 40 40
21.4883 3.0108 0.1521 255 40 40
21.5131 3.0243 0.1521 255 40 40
21.5379 3.0378 0.1521 255 40 40
21.5628 3.0514 0.1521 255 40 40
21.5876 3.0649 0.1521 255 40 40
21.6124 3.0784 0.1521 255 40 40
21.6373 3.0920 0.1521 255 40 40
21.6621 3.1055 0.1521 255 40 40
21.6869 3.1191 0.1521 255 40 40
21.7118 3.1326 0.1521 255 40 40
21.7366 3.1461 0.1521 255 40 40
21.7614 3.1597 0.1521 255 40 40
21.7862 3.1732 0.1521 255 40 40
21.8111 3.1867 0.1521 255 40 40
21.8359 3.2003 0.1521 255 40 40
21.8607 3.2138 0.1521 255 40 40
21.8856 3.2273 0.1521 255 40 40
21.9104 3.2409 0.1521 255 40 40
21.9352 3.2544 0.1521 255 40 40
21.9601 3.2679 0.1521 255 40 40
21.9849 3.2815 0.1521 255 40 40
22.0097 3.2950 0.1521 255 40 40
22.0345 3.3085 0.1521 255 40 40
22.0594 3.3221 0.1521 255 40 40
22.0842 3.3356 0.1521 255 40 40
22.1090 3.3491 0.1521 255 40 40
22.1339 3.3627 0.1521 255 40 40
22.1587 3.3762 0.1521 255 40 40
22.1835 3.3898 0.1521 255 40 40
22.2084 3.4033 0.1521 255 40 40
22.2332 3.4168 0.1521 255 40 40
22.2580 3.4304 0.1521 255 40 40
22.2829 3.4439 0.1521 255 40 40
22.3077 3.4574 0.1521 255 40 40
22.3325 3.4710 0.1521 255 40 40
22.3573 3.4845 0.1521 255 40 40
22.3822 3.4980 0.1521 255 40 40
22.4070 3.5116 0.1521 255 40 40
22.4318 3.5251 0.1521 255 40 40
22.4567 3.5386 0.1521 255 40 40
22.4815 3.5522 0.1521 255 40 40
22.5063 3.5657 0.1521 255 40 40
22.5312 3.5792 0.1521 255 40 40
22.5560 3.5928 0.1521 255 40 40
22.5808 3.6063 0.1521 255 40 40
22.6056 3.6199 0.1521 255 40 40
22.6305 3.6334 0.1521 255 40 40
22.6553 3.6469 0.1521 255 40 40
22.6801 3.6605 0.1521 255 40 40
22.7050 3.6740 0.1521 255 40 40
22.7298 3.6875 0.1521 255 40 40
22.7546 3.7011 0.1521 255 40 40
22.7795 3.7146 0.1521 255 40 40
22.8043 3.7281 0.1521 255 40 40
22.8291 3.7417 0.1521 255 40 40
22.8540 3.7552 0.1521 255 40 40
22.8788 3.7687 0.1521 255 40 40
22.9036 3.7823 0.1521 255 40 40
22.9284 3.7958 0.1521 255 40 40
22.9533 3.8093 0.1521 255 40 40
22.9781 3.8229 0.1521 255 40 40
23.0029 3.8364 0.1521 255 40 40
23.0278 3.8500 0.1521 255 40 40
23.0526 3.8635 0.1521 255 40 40
23.0774 3.8770 0.1521 255 40 40
23.1023 3.8906 0.1521 255 40 40
23.1271 3.9041 0.1521 255 40 40
23.1519 3.9176 0.1521 255 40 40
23.1767 3.9312 0.1521 255 40 40
23.2016 3.9447 0.1521 255 40 40
23.2264 3.9582 0.1521 255 40 40
23.2512 3.9718 0.1521 255 40 40
23.2761 3.9853 0.1521 255 40 40
23.3009 3.9988 0.1521 255 40 40
23.3257 4.0124 0.1521 255 40 40
23.3506 4.0259 0.1521 255 40 40
23.3754 4.0394 0.1521 255 40 40
23.4002 4.0530 0.1521 255 40 40
23.4250 4.0665 0.1521 255 40 40
23.4499 4.0801 0.1521 255 40 40
23.4747 4.0936 0.1521 255 40 40
23.4995 4.1071 0.1521 255 40 40
23.5244 4.1207 0.1521 255 40 40
23.5492 4.1342 0.1521 255 40 40
23.5740 4.1477 0.1521 255 40 40
23.5989 4.1613 0.1521 255 40 40
23.6237 4.1748 0.1521 255 40 40
23.6485 4.1883 0.1521 255 40 40
23.6734 4.2019 0.1521 255 40 40
23.6982 4.2154 0.1521 255 40 40
23.7230 4.2289 0.1521 255 40 40
23.7478 4.2425 0.1521 255 40 40
23.7727 4.2560 0.1521 255 40 40
23.7975 4.2695 0.1521 255 40 40
23.8223 4.2831 0.1521 255 40 40
23.8472 4.2966 0.1521 255 40 40
23.8720 4.3102 0.1521 255 40 40
23.8968 4.3237 0.1521 255 40 40
23.9217 4.3372 0.1521 255 40 40
23.9465 4.3508 0.1521 255 40 40
23.9713 4.3643 0.1521 255 40 40
23.9961 4.3778 0.1521 255 40 40
24.0210 4.3914 0.1521 255 40 40
24.0458 4.4049 0.1521 255 40 40
24.0706 4.4184 0.1521 255 40 40
24.0955 4.4320 0.1521 255 40 40
24.1203 4.4455 0.1521 255 40 40
24.1451 4.4590 0.1521 255 40 40
24.1700 4.4726 0.1521 255 40 40
24.1948 4.4861 0.1521 255 40 40
24.2196 4.4996 0.1521 255 40 40
24.2445 4.5132 0.1521 255 40 40
24.2693 4.5267 0.1521 255 40 40
24.2941 4.5403 0.1521 255 40 40
24.3189 4.5538 0.1521 255 40 40
24.3438 4.5673 0.1521 255 40 40
24.3686 4.5809 0.1521 255 40 40
24.3934 4.5944 0.1521 255 40 40
24.4183 4.6079 0.1521 255 40 40
24.4431 4.6215 0.1521 255 40 40
24.4679 4.6350 0.1521 255 40 40
24.4928 4.6485 0.1521 255 40 40
24.5176 4.6621 0.1521 255 40 40
24.5424 4.6756 0.1521 255 40 40
24.5672 4.6891 0.1521 255 40 40
24.5921 4.7027 0.1521 255 40 40
24.6169 4.7162 0.1521 255 40 40
24.6417 4.7297 0.1521 255 40 40
24.6666 4.7433 0.1521 255 40 40
24.6914 4.7568 0.1521 255 40 40
24.7162 4.7703 0.1521 255 40 40
24.7411 4.7839 0.1521 255 40 40
24.7659 4.7974 0.1521 255 40 40
24.7907 4.8110 0.1521 255 40 40
24.8155 4.8245 0.1521 255 40 40
24.8404 4.8380 0.1521 255 40 40
24.8652 4.8516 0.1521 255 40 40
24.8900 4.8651 0.1521 255 40 40
24.9149 4.8786 0.1521 255 40 40
24.9397 4.8922 0.1521 255 40 40
24.9645 4.9057 0.1521 255 40 40
24.9894 4.9192 0.1521 255 40 40
25.0142 4.9328 0.1521 255 40 40
25.0390 4.9463 0.1521 255 40 40
25.0639 4.9598 0.1521 255 40 40
25.0887 4.9734 0.1521 255 40 40
25.1135 4.9869 0.1521 255 40 40
25.1383 5.0004 0.1521 255 40 40
25.1383 5.0004 0.1521 255 40 40
25.1329 5.0105 0.1521 255 40 40
25.1274 5.0206 0.1521 255 40 40
25.1219 5.0307 0.1521 255 40 40
25.1164 5.0408 0.1521 255 40 40
25.1109 5.0509 0.1521 255 40 40
25.1054 5.0609 0.1521 255 40 40
25.0999 5.0710 0.1521 255 40 40
25.0944 5.0811 0.1521 255 40 40
25.0889 5.0912 0.1521 255 40 40
25.0834 5.1013 0.1521 255 40 40
25.0779 5.1113 0.1521 255 40 40
25.0724 5.1214 0.1521 255 40 40
25.0669 5.1315 0.1521 255 40 40
25.0614 5.1416 0.1521 255 40 40
25.0559 5.1517 0.1521 255 40 40
25.0504 5.1618 0.1521 255 40 40
25.0449 5.1718 0.1521 255 40 40
25.0394 5.1819 0.1521 255 40 40
25.0339 5.1920 0.1521 255 40 40
25.0284 5.2021 0.1521 255 40 40
25.0229 5.2122 0.1521 255 40 40
25.0174 5.2222 0.1521 255 40 40
25.0119 5.2323 0.1521 255 40 40
25.0065 5.2424 0.1521 255 40 40
25.0010 5.2525 0.1521 255 40 40
24.9955 5.2626 0.1521 255 40 40
24.9900 5.2726 0.1521 255 40 40
24.9845 5.2827 0.1521 255 40 40
24.9790 5.2928 0.1521 255 40 40
24.9735 5.3029 0.1521 255 40 40
24.9680 5.3130 0.1521 255 40 40
24.9625 5.3231 0.1521 255 40 40
24.9570 5.3331 0.1521 255 40 40
24.9515 5.3432 0.1521 255 40 40
24.9460 5.3533 0.1521 255 40 40
24.9405 5.3634 0.1521 255 40 40
24.9350 5.3735 0.1521 255 40 40
24.9295 5.3835 0.1521 255 40 40
24.9240 5.3936 0.1521 255 40 40
24.9185 5.4037 0.1521 255 40 40
24.9130 5.4138 0.1521 255 40 40
24.9075 5.4239 0.1521 255 40 40
24.9020 5.4340 0.1521 255 40 40
24.8965 5.4440 0.1521 255 40 40
24.8911 5.4541 0.1521 255 40 40
24.8856 5.4642 0.1521 255 40 40
24.8801 5.4743 0.1521 255 40 40
24.8746 5.4844 0.1521 255 40 40
24.8691 5.4944 0.1521 255 40 40
24.8636 5.5045 0.1521 255 40 40
24.8581 5.5146 0.1521 255 40 40
24.8526 5.5247 0.1521 255 40 40
24.8471 5.5348 0.1521 255 40 40
24.8416 5.5448 0.1521 255 40 40
24.8361 5.5549 0.1521 255 40 40
24.8306 5.5650 0.1521 255 40 40
24.8251 5.5751 0.1521 255 40 40
24.8196 5.5852 0.1521 255 40 40
24.8141 5.5953 0.1521 255 40 40
24.8086 5.6053 0.1521 255 40 40
24.8031 5.6154 0.1521 255 40 40
24.7976 5.6255 0.1521 255 40 40
24.7921 5.6356 0.1521 255 40 40
24.7866 5.6457 0.1521 255 40 40
24.7811 5.6557 0.1521 255 40 40
24.7756 5.6658 0.1521 255 40 40
24.7701 5.6759 0.1521 255 40 40
24.7647 5.6860 0.1521 255 40 40
24.7592 5.6961 0.1521 255 40 40
24.7537 5.7061 0.1521 255 40 40
24.7482 5.7162 0.1521 255 40 40
24.7427 5.7263 0.1521 255 40 40
24.7372 5.7364 0.1521 255 40 40
24.7317 5.7465 0.1521 255 40 40
24.7262 5.7566 0.1521 255 40 40
24.7207 5.7666 0.1521 255 40 40
24.7152 5.7767 0.1521 255 40 40
24.7097 5.7868 0.1521 255 40 40
24.7042 5.7969 0.1521 255 40 40
24.6987 5.8070 0.1521 255 40 40
24.6932 5.8170 0.1521 255 40 40
24.6877 5.8271 0.1521 255 40 40
24.6822 5.8372 0.1521 255 40 40
24.6767 5.8473 0.1521 255 40 40
24.6712 5.8574 0.1521 255 40 40
24.6657 5.8675 0.1521 255 40 40
24.6602 5.8775 0.1521 255 40 40
24.6547 5.8876 0.1521 255 40 40
24.6493 5.8977 0.1521 255 40 40
24.6438 5.9078 0.1521 255 40 40
24.6383 5.9179 0.1521 255 40 40
24.6328 5.9279 0.1521 255 40 40
24.6273 5.9380 0.1521 255 40 40
24.6218 5.9481 0.1521 255 40 40
24.6163 5.9582 0.1521 255 40 40
24.6108 5.9683 0.1521 255 40 40
24.6053 5.9783 0.1521 255 40 40
24.5998 5.9884 0.1521 255 40 40
24.5943 5.9985 0.1521 255 40 40
24.5888 6.0086 0.1521 255 40 40
24.5833 6.0187 0.1521 255 40 40
24.5778 6.0288 0.1521 255 40 40
24.5723 6.0388 0.1521 255 40 40
24.5668 6.0489 0.1521 255 40 40
24.5613 6.0590 0.1521 255 40 40
24.5558 6.0691 0.1521 255 40 40
24.5503 6.0792 0.1521 255 40 40
24.5448 6.0892 0.1521 255 40 40
24.5393 6.0993 0.1521 255 40 40
24.5338 6.1094 0.1521 255 40 40
24.5283 6.1195 0.1521 255 40 40
24.5229 6.1296 0.1521 255 40 40
24.5174 6.1397 0.1521 255 40 40
24.5119 6.1497 0.1521 255 40 40
24.5064 6.1598 0.1521 255 40 40
24.5009 6.1699 0.1521 255 40 40
24.4954 6.1800 0.1521 255 40 40
24.4899 6.1901 0.1521 255 40 40
24.4844 6.2001 0.1521 255 40 40
24.4789 6.2102 0.1521 255 40 40
24.4734 6.2203 0.1521 255 40 40
24.4679 6.2304 0.1521 255 40 40
24.4624 6.2405 0.1521 255 40 40
24.4569 6.2505 0.1521 255 40 40
24.4514 6.2606 0.1521 255 40 40
24.4459 6.2707 0.1521 255 40 40
24.4404 6.2808 0.1521 255 40 40
24.4349 6.2909 0.1521 255 40 40
24.4294 6.3010 0.1521 255 40 40
24.4239 6.3110 0.1521 255 40 40
24.4184 6.3211 0.1521 255 40 40
24.4129 6.3312 0.1521 255 40 40
24.4074 6.3413 0.1521 255 40 40
24.4020 6.3514 0.1521 255 40 40
24.3965 6.3614 0.1521 255 40 40
24.3910 6.3715 0.1521 255 40 40
24.3855 6.3816 0.1521 255 40 40
24.3800 6.3917 0.1521 255 40 40
24.3745 6.4018 0.1521 255 40 40
24.3690 6.4118 0.1521 255 40 40
24.3635 6.4219 0.1521 255 40 40
24.3580 6.4320 0.1521 255 40 40
24.3525 6.4421 0.1521 255 40 40
24.3470 6.4522 0.1521 255 40 40
24.3415 6.4623 0.1521 255 40 40
24.3360 6.4723 0.1521 255 40 40
24.3305 6.4824 0.1521 255 40 40
24.3250 6.4925 0.1521 255 40 40
24.3195 6.5026 0.1521 255 40 40
24.3140 6.5127 0.1521 255 40 40
24.3085 6.5227 0.1521 255 40 40
24.3030 6.5328 0.1521 255 40 40
24.2975 6.5429 0.1521 255 40 40
24.2920 6.5530 0.1521 255 40 40
24.2865 6.5631 0.1521 255 40 40
24.2811 6.5732 0.1521 255 40 40
24.2756 6.5832 0.1521 255 40 40
24.2701 6.5933 0.1521 255 40 40
24.2646 6.6034 0.1521 255 40 40
24.2591 6.6135 0.1521 255 40 40
24.2536 6.6236 0.1521 255 40 40
24.2481 6.6336 0.1521 255 40 40
24.2426 6.6437 0.1521 255 40 40
24.2371 6.6538 0.1521 255 40 40
24.2316 6.6639 0.1521 255 40 40
24.2316 6.6639 0.1521 255 40 40
24.2068 6.6503 0.1521 255 40 40
24.1819 6.6368 0.1521 255 40 40
24.1571 6.6233 0.1521 255 40 40
24.1323 6.6097 0.1521 255 40 40
24.1074 6.5962 0.1521 255 40 40
24.0826 6.5827 0.1521 255 40 40
24.0578 6.5691 0.1521 255 40 40
24.0330 6.5556 0.1521 255 40 40
24.0081 6.5421 0.1521 255 40 40
23.9833 6.5285 0.1521 255 40 40
23.9585 6.5150 0.1521 255 40 40
23.9336 6.5015 0.1521 255 40 40
23.9088 6.4879 0.1521 255 40 40
23.8840 6.4744 0.1521 255 40 40
23.8591 6.4609 0.1521 255 40 40
23.8343 6.4473 0.1521 255 40 40
23.8095 6.4338 0.1521 255 40 40
23.7846 6.4203 0.1521 255 40 40
23.7598 6.4067 0.1521 255 40 40
23.7350 6.3932 0.1521 255 40 40
23.7102 6.3796 0.1521 255 40 40
23.6853 6.3661 0.1521 255 40 40
23.6605 6.3526 0.1521 255 40 40
23.6357 6.3390 0.1521 255 40 40
23.6108 6.3255 0.1521 255 40 40
23.5860 6.3120 0.1521 255 40 40
23.5612 6.2984 0.1521 255 40 40
23.5363 6.2849 0.1521 255 40 40
23.5115 6.2714 0.1521 255 40 40
23.4867 6.2578 0.1521 255 40 40
23.4619 6.2443 0.1521 255 40 40
23.4370 6.2308 0.1521 255 40 40
23.4122 6.2172 0.1521 255 40 40
23.3874 6.2037 0.1521 255 40 40
23.3625 6.1902 0.1521 255 40 40
23.3377 6.1766 0.1521 255 40 40
23.3129 6.1631 0.1521 255 40 40
23.2880 6.1495 0.1521 255 40 40
23.2632 6.1360 0.1521 255 40 40
23.2384 6.1225 0.1521 255 40 40
23.2135 6.1089 0.1521 255 40 40
23.1887 6.0954 0.1521 255 40 40
23.1639 6.0819 0.1521 255 40 40
23.1391 6.0683 0.1521 255 40 40
23.1142 6.0548 0.1521 255 40 40
23.0894 6.0413 0.1521 255 40 40
23.0646 6.0277 0.1521 255 40 40
23.0397 6.0142 0.1521 255 40 40
23.0149 6.0007 0.1521 255 40 40
22.9901 5.9871 0.1521 255 40 40
22.9652 5.9736 0.1521 255 40 40
22.9404 5.9601 0.1521 255 40 40
22.9156 5.9465 0.1521 255 40 40
22.8908 5.9330 0.1521 255 40 40
22.8659 5.9194 0.1521 255 40 40
22.8411 5.9059 0.1521 255 40 40
22.8163 5.8924 0.1521 255 40 40
22.7914 5.8788 0.1521 255 40 40
22.7666 5.8653 0.1521 255 40 40
22.7418 5.8518 0.1521 255 40 40
22.7169 5.8382 0.1521 255 40 40
22.6921 5.8247 0.1521 255 40 40
22.6673 5.8112 0.1521 255 40 40
22.6425 5.7976 0.1521 255 40 40
22.6176 5.7841 0.1521 255 40 40
22.5928 5.7706 0.1521 255 40 40
22.5680 5.7570 0.1521 255 40 40
22.5431 5.7435 0.1521 255 40 40
22.5183 5.7300 0.1521 255 40 40
22.4935 5.7164 0.1521 255 40 40
22.4686 5.7029 0.1521 255 40 40
22.4438 5.6893 0.1521 255 40 40
22.4190 5.6758 0.1521 255 40 40
22.3941 5.6623 0.1521 255 40 40
22.3693 5.6487 0.1521 255 40 40
22.3445 5.6352 0.1521 255 40 40
22.3197 5.6217 0.1521 255 40 40
22.2948 5.6081 0.1521 255 40 40
22.2700 5.5946 0.1521 255 40 40
22.2452 5.5811 0.1521 255 40 40
22.2203 5.5675 0.1521 255 40 40
22.1955 5.5540 0.1521 255 40 40
22.1707 5.5405 0.1521 255 40 40
22.1458 5.5269 0.1521 255 40 40
22.1210 5.5134 0.1521 255 40 40
22.0962 5.4999 0.1521 255 40 40
22.0714 5.4863 0.1521 255 40 40
22.0465 5.4728 0.1521 255 40 40
22.0217 5.4592 0.1521 255 40 40
21.9969 5.4457 0.1521 255 40 40
21.9720 5.4322 0.1521 255 40 40
21.9472 5.4186 0.1521 255 40 40
21.9224 5.4051 0.1521 255 40 40
21.8975 5.3916 0.1521 255 40 40
21.8727 5.3780 0.1521 255 40 40
21.8479 5.3645 0.1521 255 40 40
21.8230 5.3510 0.1521 255 40 40
21.7982 5.3374 0.1521 255 40 40
21.7734 5.3239 0.1521 255 40 40
21.7486 5.3104 0.1521 255 40 40
21.7237 5.2968 0.1521 255 40 40
21.6989 5.2833 0.1521 255 40 40
21.6741 5.2698 0.1521 255 40 40
21.6492 5.2562 0.1521 255 40 40
21.6244 5.2427 0.1521 255 40 40
21.5996 5.2291 0.1521 255 40 40
21.5747 5.2156 0.1521 255 40 40
21.5499 5.2021 0.1521 255 40 40
21.5251 5.1885 0.1521 255 40 40
21.5003 5.1750 0.1521 255 40 40
21.4754 5.1615 0.1521 255 40 40
21.4506 5.1479 0.1521 255 40 40
21.4258 5.1344 0.1521 255 40 40
21.4009 5.1209 0.1521 255 40 40
21.3761 5.1073 0.1521 255 40 40
21.3513 5.0938 0.1521 255 40 40
21.3264 5.0803 0.1521 255 40 40
21.3016 5.0667 0.1521 255 40 40
21.2768 5.0532 0.1521 255 40 40
21.2519 5.0397 0.1521 255 40 40
21.2271 5.0261 0.1521 255 40 40
21.2023 5.0126 0.1521 255 40 40
21.1775 4.9990 0.1521 255 40 40
21.1526 4.9855 0.1521 255 40 40
21.1278 4.9720 0.1521 255 40 40
21.1030 4.9584 0.1521 255 40 40
21.0781 4.9449 0.1521 255 40 40
21.0533 4.9314 0.1521 255 40 40
21.0285 4.9178 0.1521 255 40 40
21.0036 4.9043 0.1521 255 40 40
20.9788 4.8908 0.1521 255 40 40
20.9540 4.8772 0.1521 255 40 40
20.9292 4.8637 0.1521 255 40 40
20.9043 4.8502 0.1521 255 40 40
20.8795 4.8366 0.1521 255 40 40
20.8547 4.8231 0.1521 255 40 40
20.8298 4.8096 0.1521 255 40 40
20.8050 4.7960 0.1521 255 40 40
20.7802 4.7825 0.1521 255 40 40
20.7553 4.7690 0.1521 255 40 40
20.7305 4.7554 0.1521 255 40 40
20.7057 4.7419 0.1521 255 40 40
20.6808 4.7283 0.1521 255 40 40
20.6560 4.7148 0.1521 255 40 40
20.6312 4.7013 0.1521 255 40 40
20.6064 4.6877 0.1521 255 40 40
20.5815 4.6742 0.1521 255 40 40
20.5567 4.6607 0.1521 255 40 40
20.5319 4.6471 0.1521 255 40 40
20.5070 4.6336 0.1521 255 40 40
20.4822 4.6201 0.1521 255 40 40
20.4574 4.6065 0.1521 255 40 40
20.4325 4.5930 0.1521 255 40 40
20.4077 4.5795 0.1521 255 40 40
20.3829 4.5659 0.1521 255 40 40
20.3581 4.5524 0.1521 255 40 40
20.3332 4.5389 0.1521 255 40 40
20.3084 4.5253 0.1521 255 40 40
20.2836 4.5118 0.1521 255 40 40
20.2587 4.4982 0.1521 255 40 40
20.2339 4.4847 0.1521 255 40 40
20.2091 4.4712 0.1521 255 40 40
20.1842 4.4576 0.1521 255 40 40
20.1594 4.4441 0.1521 255 40 40
20.1346 4.4306 0.1521 255 40 40
20.1346 4.4306 0.1521 255 40 40
20.1401 4.4205 0.1521 255 40 40
20.1456 4.4104 0.1521 255 40 40
20.1511 4.4003 0.1521 255 40 40
20.1566 4.3902 0.1521 255 40 40
20.1621 4.3802 0.1521 255 40 40
20.1676 4.3701 0.1521 255 40 40
20.1730 4.3600 0.1521 255 40 40
20.1785 4.3499 0.1521 255 40 40
20.1840 4.3398 0.1521 255 40 40
20.1895 4.3298 0.1521 255 40 40
20.1950 4.3197 0.1521 255 40 40
20.2005 4.3096 0.1521 255 40 40
20.2060 4.2995 0.1521 255 40 40
20.2115 4.2894 0.1521 255 40 40
20.2170 4.2793 0.1521 255 40 40
20.2225 4.2693 0.1521 255 40 40
20.2280 4.2592 0.1521 255 40 40
20.2335 4.2491 0.1521 255 40 40
20.2390 4.2390 0.1521 255 40 40
20.2445 4.2289 0.1521 255 40 40
20.2500 4.2189 0.1521 255 40 40
20.2555 4.2088 0.1521 255 40 40
20.2610 4.1987 0.1521 255 40 40
20.2665 4.1886 0.1521 255 40 40
20.2720 4.1785 0.1521 255 40 40
20.2775 4.1685 0.1521 255 40 40
20.2830 4.1584 0.1521 255 40 40
20.2885 4.1483 0.1521 255 40 40
20.2939 4.1382 0.1521 255 40 40
20.2994 4.1281 0.1521 255 40 40
20.3049 4.1180 0.1521 255 40 40
20.3104 4.1080 0.1521 255 40 40
20.3159 4.0979 0.1521 255 40 40
20.3214 4.0878 0.1521 255 40 40
20.3269 4.0777 0.1521 255 40 40
20.3324 4.0676 0.1521 255 40 40
20.3379 4.0576 0.1521 255 40 40
20.3434 4.0475 0.1521 255 40 40
20.3489 4.0374 0.1521 255 40 40
20.3544 4.0273 0.1521 255 40 40
20.3599 4.0172 0.1521 255 40 40
20.3654 4.0071 0.1521 255 40 40
20.3709 3.9971 0.1521 255 40 40
20.3764 3.9870 0.1521 255 40 40
20.3819 3.9769 0.1521 255 40 40
20.3874 3.9668 0.1521 255 40 40
20.3929 3.9567 0.1521 255 40 40
20.3984 3.9467 0.1521 255 40 40
20.4039 3.9366 0.1521 255 40 40
20.4094 3.9265 0.1521 255 40 40
20.4149 3.9164 0.1521 255 40 40
20.4203 3.9063 0.1521 255 40 40
20.4258 3.8963 0.1521 255 40 40
20.4313 3.8862 0.1521 255 40 40
20.4368 3.8761 0.1521 255 40 40
20.4423 3.8660 0.1521 255 40 40
20.4478 3.8559 0.1521 255 40 40
20.4533 3.8458 0.1521 255 40 40
20.4588 3.8358 0.1521 255 40 40
20.4643 3.8257 0.1521 255 40 40
20.4698 3.8156 0.1521 255 40 40
20.4753 3.8055 0.1521 255 40 40
20.4808 3.7954 0.1521 255 40 40
20.4863 3.7854 0.1521 255 40 40
20.4918 3.7753 0.1521 255 40 40
20.4973 3.7652 0.1521 255 40 40
20.5028 3.7551 0.1521 255 40 40
20.5083 3.7450 0.1521 255 40 40
20.5138 3.7350 0.1521 255 40 40
20.5193 3.7249 0.1521 255 40 40
20.5248 3.7148 0.1521 255 40 40
20.5303 3.7047 0.1521 255 40 40
20.5357 3.6946 0.1521 255 40 40
20.5412 3.6845 0.1521 255 40 40
20.5467 3.6745 0.1521 255 40 40
20.5522 3.6644 0.1521 255 40 40
20.5577 3.6543 0.1521 255 40 40
20.5632 3.6442 0.1521 255 40 40
20.5687 3.6341 0.1521 255 40 40
20.5742 3.6241 0.1521 255 40 40
20.5797 3.6140 0.1521 255 40 40
20.5852 3.6039 0.1521 255 40 40
20.5907 3.5938 0.1521 255 40 40
20.5962 3.5837 0.1521 255 40 40
20.6017 3.5736 0.1521 255 40 40
20.6072 3.5636 0.1521 255 40 40
20.6127 3.5535 0.1521 255 40 40
20.6182 3.5434 0.1521 255 40 40
20.6237 3.5333 0.1521 255 40 40
20.6292 3.5232 0.1521 255 40 40
20.6347 3.5132 0.1521 255 40 40
20.6402 3.5031 0.1521 255 40 40
20.6457 3.4930 0.1521 255 40 40
20.6512 3.4829 0.1521 255 40 40
20.6567 3.4728 0.1521 255 40 40
20.6621 3.4628 0.1521 255 40 40
20.6676 3.4527 0.1521 255 40 40
20.6731 3.4426 0.1521 255 40 40
20.6786 3.4325 0.1521 255 40 40
20.6841 3.4224 0.1521 255 40 40
20.6896 3.4123 0.1521 255 40 40
20.6951 3.4023 0.1521 255 40 40
20.7006 3.3922 0.1521 255 40 40
20.7061 3.3821 0.1521 255 40 40
20.7116 3.3720 0.1521 255 40 40
20.7171 3.3619 0.1521 255 40 40
20.7226 3.3519 0.1521 255 40 40
20.7281 3.3418 0.1521 255 40 40
20.7336 3.3317 0.1521 255 40 40
20.7391 3.3216 0.1521 255 40 40
20.7446 3.3115 0.1521 255 40 40
20.7501 3.3014 0.1521 255 40 40
20.7556 3.2914 0.1521 255 40 40
20.7611 3.2813 0.1521 255 40 40
20.7666 3.2712 0.1521 255 40 40
20.7721 3.2611 0.1521 255 40 40
20.7775 3.2510 0.1521 255 40 40
20.7830 3.2410 0.1521 255 40 40
20.7885 3.2309 0.1521 255 40 40
20.7940 3.2208 0.1521 255 40 40
20.7995 3.2107 0.1521 255 40 40
20.8050 3.2006 0.1521 255 40 40
20.8105 3.1906 0.1521 255 40 40
20.8160 3.1805 0.1521 255 40 40
20.8215 3.1704 0.1521 255 40 40
20.8270 3.1603 0.1521 255 40 40
20.8325 3.1502 0.1521 255 40 40
20.8380 3.1401 0.1521 255 40 40
20.8435 3.1301 0.1521 255 40 40
20.8490 3.1200 0.1521 255 40 40
20.8545 3.1099 0.1521 255 40 40
20.8600 3.0998 0.1521 255 40 40
20.8655 3.0897 0.1521 255 40 40
20.8710 3.0797 0.1521 255 40 40
20.8765 3.0696 0.1521 255 40 40
20.8820 3.0595 0.1521 255 40 40
20.8875 3.0494 0.1521 255 40 40
20.8930 3.0393 0.1521 255 40 40
20.8985 3.0293 0.1521 255 40 40
20.9039 3.0192 0.1521 255 40 40
20.9094 3.0091 0.1521 255 40 40
20.9149 2.9990 0.1521 255 40 40
20.9204 2.9889 0.1521 255 40 40
20.9259 2.9788 0.1521 255 40 40
20.9314 2.9688 0.1521 255 40 40
20.9369 2.9587 0.1521 255 40 40
20.9424 2.9486 0.1521 255 40 40
20.9479 2.9385 0.1521 255 40 40
20.9534 2.9284 0.1521 255 40 40
20.9589 2.9184 0.1521 255 40 40
20.9644 2.9083 0.1521 255 40 40
20.9699 2.8982 0.1521 255 40 40
20.9754 2.8881 0.1521 255 40 40
20.9809 2.8780 0.1521 255 40 40
20.9864 2.8679 0.1521 255 40 40
20.9919 2.8579 0.1521 255 40 40
20.9974 2.8478 0.1521 255 40 40
21.0029 2.8377 0.1521 255 40 40
21.0084 2.8276 0.1521 255 40 40
21.0139 2.8175 0.1521 255 40 40
21.0194 2.8075 0.1521 255 40 40
21.0248 2.7974 0.1521 255 40 40
21.0303 2.7873 0.1521 255 40 40
21.0358 2.7772 0.1521 255 40 40
21.0413 2.7671 0.1521 255 40 40
21.0413 2.7671 2.1954 255 40 40
21.0662 2.7807 2.1954 255 40 40
21.0910 2.7942 2.1954 255 40 40
21.1158 2.8077 2.1954 255 40 40
21.1407 2.8213 2.1954 255 40 40
21.1655 2.8348 2.1954 255 40 40
21.1903 2.8483 2.1954 255 40 40
21.2151 2.8619 2.1954 255 40 40
21.2400 2.8754 2.1954 255 40 40
21.2648 2.8890 2.1954 255 40 40
21.2896 2.9025 2.1954 255 40 40
21.3145 2.9160 2.1954 255 40 40
21.3393 2.9296 2.1954 255 40 40
21.3641 2.9431 2.1954 255 40 40
21.3890 2.9566 2.1954 255 40 40
21.4138 2.9702 2.1954 255 40 40
21.4386 2.9837 2.1954 255 40 40
21.4634 2.9972 2.1954 255 40 40
21.4883 3.0108 2.1954 255 40 40
21.5131 3.0243 2.1954 255 40 40
21.5379 3.0378 2.1954 255 40 40
21.5628 3.0514 2.1954 255 40 40
21.5876 3.0649 2.1954 255 40 40
21.6124 3.0784 2.1954 255 40 40
21.6373 3.0920 2.1954 255 40 40
21.6621 3.1055 2.1954 255 40 40
21.6869 3.1191 2.1954 255 40 40
21.7118 3.1326 2.1954 255 40 40
21.7366 3.1461 2.1954 255 40 40
21.7614 3.1597 2.1954 255 40 40
21.7862 3.1732 2.1954 255 40 40
21.8111 3.1867 2.1954 255 40 40
21.8359 3.2003 2.1954 255 40 40
21.8607 3.2138 2.1954 255 40 40
21.8856 3.2273 2.1954 255 40 40
21.9104 3.2409 2.1954 255 40 40
21.9352 3.2544 2.1954 255 40 40
21.9601 3.2679 2.1954 255 40 40
21.9849 3.2815 2.1954 255 40 40
22.0097 3.2950 2.1954 255 40 40
22.0345 3.3085 2.1954 255 40 40
22.0594 3.3221 2.1954 255 40 40
22.0842 3.3356 2.1954 255 40 40
22.1090 3.3491 2.1954 255 40 40
22.1339 3.3627 2.1954 255 40 40
22.1587 3.3762 2.1954 255 40 40
22.1835 3.3898 2.1954 255 40 40
22.2084 3.4033 2.1954 255 40 40
22.2332 3.4168 2.1954 255 40 40
22.2580 3.4304 2.1954 255 40 40
22.2829 3.4439 2.1954 255 40 40
22.3077 3.4574 2.1954 255 40 40
22.3325 3.4710 2.1954 255 40 40
22.3573 3.4845 2.1954 255 40 40
22.3822 3.4980 2.1954 255 40 40
22.4070 3.5116 2.1954 255 40 40
22.4318 3.5251 2.1954 255 40 40
22.4567 3.5386 2.1954 255 40 40
22.4815 3.5522 2.1954 255 40 40
22.5063 3.5657 2.1954 255 40 40
22.5312 3.5792 2.1954 255 40 40
22.5560 3.5928 2.1954 255 40 40
22.5808 3.6063 2.1954 255 40 40
22.6056 3.6199 2.1954 255 40 40
22.6305 3.6334 2.1954 255 40 40
22.6553 3.6469 2.1954 255 40 40
22.6801 3.6605 2.1954 255 40 40
22.7050 3.6740 2.1954 255 40 40
22.7298 3.6875 2.1954 255 40 40
22.7546 3.7011 2.1954 255 40 40
22.7795 3.7146 2.1954 255 40 40
22.8043 3.7281 2.1954 255 40 40
22.8291 3.7417 2.1954 255 40 40
22.8540 3.7552 2.1954 255 40 40
22.8788 3.7687 2.1954 255 40 40
22.9036 3.7823 2.1954 255 40 40
22.9284 3.7958 2.1954 255 40 40
22.9533 3.8093 2.1954 255 40 40
22.9781 3.8229 2.1954 255 40 40
23.0029 3.8364 2.1954 255 40 40
23.0278 3.8500 2.1954 255 40 40
23.0526 3.8635 2.1954 255 40 40
23.0774 3.8770 2.1954 255 40 40
23.1023 3.8906 2.1954 255 40 40
23.1271 3.9041 2.1954 255 40 40
23.1519 3.9176 2.1954 255 40 40
23.1767 3.9312 2.1954 255 40 40
23.2016 3.9447 2.1954 255 40 40
23.2264 3.9582 2.1954 255 40 40
23.2512 3.9718 2.1954 255 40 40
23.2761 3.9853 2.1954 255 40 40
23.3009 3.9988 2.1954 255 40 40
23.3257 4.0124 2.1954 255 40 40
23.3506 4.0259 2.1954 255 40 40
23.3754 4.0394 2.1954 255 40 40
23.4002 4.0530 2.1954 255 40 40
23.4250 4.0665 2.1954 255 40 40
23.4499 4.0801 2.1954 255 40 40
23.4747 4.0936 2.1954 255 40 40
23.4995 4.1071 2.1954 255 40 40
23.5244 4.1207 2.1954 255 40 40
23.5492 4.1342 2.1954 255 40 40
23.5740 4.1477 2.1954 255 40 40
23.5989 4.1613 2.1954 255 40 40
23.6237 4.1748 2.1954 255 40 40
23.6485 4.1883 2.1954 255 40 40
23.6734 4.2019 2.1954 255 40 40
23.6982 4.2154 2.1954 255 40 40
23.7230 4.2289 2.1954 255 40 40
23.7478 4.2425 2.1954 255 40 40
23.7727 4.2560 2.1954 255 40 40
23.7975 4.2695 2.1954 255 40 40
23.8223 4.2831 2.1954 255 40 40
23.8472 4.2966 2.1954 255 40 40
23.8720 4.3102 2.1954 255 40 40
23.8968 4.3237 2.1954 255 40 40
23.9217 4.3372 2.1954 255 40 40
23.9465 4.3508 2.1954 255 40 40
23.9713 4.3643 2.1954 255 40 40
23.9961 4.3778 2.1954 255 40 40
24.0210 4.3914 2.1954 255 40 40
24.0458 4.4049 2.1954 255 40 40
24.0706 4.4184 2.1954 255 40 40
24.0955 4.4320 2.1954 255 40 40
24.1203 4.4455 2.1954 255 40 40
24.1451 4.4590 2.1954 255 40 40
24.1700 4.4726 2.1954 255 40 40
24.1948 4.4861 2.1954 255 40 40
24.2196 4.4996 2.1954 255 40 40
24.2445 4.5132 2.1954 255 40 40
24.2693 4.5267 2.1954 255 40 40
24.2941 4.5403 2.1954 255 40 40
24.3189 4.5538 2.1954 255 40 40
24.3438 4.5673 2.1954 255 40 40
24.3686 4.5809 2.1954 255 40 40
24.3934 4.5944 2.1954 255 40 40
24.4183 4.6079 2.1954 255 40 40
24.4431 4.6215 2.1954 255 40 40
24.4679 4.6350 2.1954 255 40 40
24.4928 4.6485 2.1954 255 40 40
24.5176 4.6621 2.1954 255 40 40
24.5424 4.6756 2.1954 255 40 40
24.5672 4.6891 2.1954 255 40 40
24.5921 4.7027 2.1954 255 40 40
24.6169 4.7162 2.1954 255 40 40
24.6417 4.7297 2.1954 255 40 40
24.6666 4.7433 2.1954 255 40 40
24.6914 4.7568 2.1954 255 40 40
24.7162 4.7703 2.1954 255 40 40
24.7411 4.7839 2.1954 255 40 40
24.7659 4.7974 2.1954 255 40 40
24.7907 4.8110 2.1954 255 40 40
24.8155 4.8245 2.1954 255 40 40
24.8404 4.8380 2.1954 255 40 40
24.8652 4.8516 2.1954 255 40 40
24.8900 4.8651 2.1954 255 40 40
24.9149 4.8786 2.1954 255 40 40
24.9397 4.8922 2.1954 255 40 40
24.9645 4.9057 2.1954 255 40 40
24.9894 4.9192 2.1954 255 40 40
25.0142 4.9328 2.1954 255 40 40
25.0390 4.9463 2.1954 255 40 40
25.0639 4.9598 2.1954 255 40 40
25.0887 4.9734 2.1954 255 40 40
25.1135 4.9869 2.1954 255 40 40
25.1383 5.0004 2.1954 255 40 40
25.1383 5.0004 2.1954 255 40 40
25.1329 5.0105 2.1954 255 40 40
25.1274 5.0206 2.1954 255 40 40
25.1219 5.0307 2.1954 255 40 40
25.1164 5.0408 2.1954 255 40 40
25.1109 5.0509 2.1954 255 40 40
25.1054 5.0609 2.1954 255 40 40
25.0999 5.0710 2.1954 255 40 40
25.0944 5.0811 2.1954 255 40 40
25.0889 5.0912 2.1954 255 40 40
25.0834 5.1013 2.1954 255 40 40
25.0779 5.1113 2.1954 255 40 40
25.0724 5.1214 2.1954 255 40 40
25.0669 5.1315 2.1954 255 40 40
25.0614 5.1416 2.1954 255 40 40
25.0559 5.1517 2.1954 255 40 40
25.0504 5.1618 2.1954 255 40 40
25.0449 5.1718 2.1954 255 40 40
25.0394 5.1819 2.1954 255 40 40
25.0339 5.1920 2.1954 255 40 40
25.0284 5.2021 2.1954 255 40 40
25.0229 5.2122 2.1954 255 40 40
25.0174 5.2222 2.1954 255 40 40
25.0119 5.2323 2.1954 255 40 40
25.0065 5.2424 2.1954 255 40 40
25.0010 5.2525 2.1954 255 40 40
24.9955 5.2626 2.1954 255 40 40
24.9900 5.2726 2.1954 255 40 40
24.9845 5.2827 2.1954 255 40 40
24.9790 5.2928 2.1954 255 40 40
24.9735 5.3029 2.1954 255 40 40
24.9680 5.3130 2.1954 255 40 40
24.9625 5.3231 2.1954 255 40 40
24.9570 5.3331 2.1954 255 40 40
24.9515 5.3432 2.1954 255 40 40
24.9460 5.3533 2.1954 255 40 40
24.9405 5.3634 2.1954 255 40 40
24.9350 5.3735 2.1954 255 40 40
24.9295 5.3835 2.1954 255 40 40
24.9240 5.3936 2.1954 255 40 40
24.9185 5.4037 2.1954 255 40 40
24.9130 5.4138 2.1954 255 40 40
24.9075 5.4239 2.1954 255 40 40
24.9020 5.4340 2.1954 255 40 40
24.8965 5.4440 2.1954 255 40 40
24.8911 5.4541 2.1954 255 40 40
24.8856 5.4642 2.1954 255 40 40
24.8801 5.4743 2.1954 255 40 40
24.8746 5.4844 2.1954 255 40 40
24.8691 5.4944 2.1954 255 40 40
24.8636 5.5045 2.1954 255 40 40
24.8581 5.5146 2.1954 255 40 40
24.8526 5.5247 2.1954 255 40 40
24.8471 5.5348 2.1954 255 40 40
24.8416 5.5448 2.1954 255 40 40
24.8361 5.5549 2.1954 255 40 40
24.8306 5.5650 2.1954 255 40 40
24.8251 5.5751 2.1954 255 40 40
24.8196 5.5852 2.1954 255 40 40
24.8141 5.5953 2.1954 255 40 40
24.8086 5.6053 2.1954 255 40 40
24.8031 5.6154 2.1954 255 40 40
24.7976 5.6255 2.1954 255 40 40
24.7921 5.6356 2.1954 255 40 40
24.7866 5.6457 2.1954 255 40 40
24.7811 5.6557 2.1954 255 40 40
24.7756 5.6658 2.1954 255 40 40
24.7701 5.6759 2.1954 255 40 40
24.7647 5.6860 2.1954 255 40 40
24.7592 5.6961 2.1954 255 40 40
24.7537 5.7061 2.1954 255 40 40
24.7482 5.7162 2.1954 255 40 40
24.7427 5.7263 2.1954 255 40 40
24.7372 5.7364 2.1954 255 40 40
24.7317 5.7465 2.1954 255 40 40
24.7262 5.7566 2.1954 255 40 40
24.7207 5.7666 2.1954 255 40 40
24.7152 5.7767 2.1954 255 40 40
24.7097 5.7868 2.1954 255 40 40
24.7042 5.7969 2.1954 255 40 40
24.6987 5.8070 2.1954 255 40 40
24.6932 5.8170 2.1954 255 40 40
24.6877 5.8271 2.1954 255 40 40
24.6822 5.8372 2.1954 255 40 40
24.6767 5.8473 2.1954 255 40 40
24.6712 5.8574 2.1954 255 40 40
24.6657 5.8675 2.1954 255 40 40
24.6602 5.8775 2.1954 255 40 40
24.6547 5.8876 2.1954 255 40 40
24.6493 5.8977 2.1954 255 40 40
24.6438 5.9078 2.1954 255 40 40
24.6383 5.9179 2.1954 255 40 40
24.6328 5.9279 2.1954 255 40 40
24.6273 5.9380 2.1954 255 40 40
24.6218 5.9481 2.1954 255 40 40
24.6163 5.9582 2.1954 255 40 40
24.6108 5.9683 2.1954 255 40 40
24.6053 5.9783 2.1954 255 40 40
24.5998 5.9884 2.1954 255 40 40
24.5943 5.9985 2.1954 255 40 40
24.5888 6.0086 2.1954 255 40 40
24.5833 6.0187 2.1954 255 40 40
24.5778 6.0288 2.1954 255 40 40
24.5723 6.0388 2.1954 255 40 40
24.5668 6.0489 2.1954 255 40 40
24.5613 6.0590 2.1954 255 40 40
24.5558 6.0691 2.1954 255 40 40
24.5503 6.0792 2.1954 255 40 40
24.5448 6.0892 2.1954 255 40 40
24.5393 6.0993 2.1954 255 40 40
24.5338 6.1094 2.1954 255 40 40
24.5283 6.1195 2.1954 255 40 40
24.5229 6.1296 2.1954 255 40 40
24.5174 6.1397 2.1954 255 40 40
24.5119 6.1497 2.1954 255 40 40
24.5064 6.1598 2.1954 255 40 40
24.5009 6.1699 2.1954 255 40 40
24.4954 6.1800 2.1954 255 40 40
24.4899 6.1901 2.1954 255 40 40
24.4844 6.2001 2.1954 255 40 40
24.4789 6.2102 2.1954 255 40 40
24.4734 6.2203 2.1954 255 40 40
24.4679 6.2304 2.1954 255 40 40
24.4624 6.2405 2.1954 255 40 40
24.4569 6.2505 2.1954 255 40 40
24.4514 6.2606 2.1954 255 40 40
24.4459 6.2707 2.1954 255 40 40
24.4404 6.2808 2.1954 255 40 40
24.4349 6.2909 2.1954 255 40 40
24.4294 6.3010 2.1954 255 40 40
24.4239 6.3110 2.1954 255 40 40
24.4184 6.3211 2.1954 255 40 40
24.4129 6.3312 2.1954 255 40 40
24.4074 6.3413 2.1954 255 40 40
24.4020 6.3514 2.1954 255 40 40
24.3965 6.3614 2.1954 255 40 40
24.3910 6.3715 2.1954 255 40 40
24.3855 6.3816 2.1954 255 40 40
24.3800 6.3917 2.1954 255 40 40
24.3745 6.4018 2.1954 255 40 40
24.3690 6.4118 2.1954 255 40 40
24.3635 6.4219 2.1954 255 40 40
24.3580 6.4320 2.1954 255 40 40
24.3525 6.4421 2.1954 255 40 40
24.3470 6.4522 2.1954 255 40 40
24.3415 6.4623 2.1954 255 40 40
24.3360 6.4723 2.1954 255 40 40
24.3305 6.4824 2.1954 255 40 40
24.3250 6.4925 2.1954 255 40 40
24.3195 6.5026 2.1954 255 40 40
24.3140 6.5127 2.1954 255 40 40
24.3085 6.5227 2.1954 255 40 40
24.3030 6.5328 2.1954 255 40 40
24.2975 6.5429 2.1954 255 40 40
24.2920 6.5530 2.1954 255 40 40
24.2865 6.5631 2.1954 255 40 40
24.2811 6.5732 2.1954 255 40 40
24.2756 6.5832 2.1954 255 40 40
24.2701 6.5933 2.1954 255 40 40
24.2646 6.6034 2.1954 255 40 40
24.2591 6.6135 2.1954 255 40 40
24.2536 6.6236 2.1954 255 40 40
24.2481 6.6336 2.1954 255 40 40
24.2426 6.6437 2.1954 255 40 40
24.2371 6.6538 2.1954 255 40 40
24.2316 6.6639 2.1954 255 40 40
24.2316 6.6639 2.1954 255 40 40
24.2068 6.6503 2.1954 255 40 40
24.1819 6.6368 2.1954 255 40 40
24.1571 6.6233 2.1954 255 40 40
24.1323 6.6097 2.1954 255 40 40
24.1074 6.5962 2.1954 255 40 40
24.0826 6.5827 2.1954 255 40 40
24.0578 6.5691 2.1954 255 40 40
24.0330 6.5556 2.1954 255 40 40
24.0081 6.5421 2.1954 255 40 40
23.9833 6.5285 2.1954 255 40 40
23.9585 6.5150 2.1954 255 40 40
23.9336 6.5015 2.1954 255 40 40
23.9088 6.4879 2.1954 255 40 40
23.8840 6.4744 2.1954 255 40 40
23.8591 6.4609 2.1954 255 40 40
23.8343 6.4473 2.1954 255 40 40
23.8095 6.4338 2.1954 255 40 40
23.7846 6.4203 2.1954 255 40 40
23.7598 6.4067 2.1954 255 40 40
23.7350 6.3932 2.1954 255 40 40
23.7102 6.3796 2.1954 255 40 40
23.6853 6.3661 2.1954 255 40 40
23.6605 6.3526 2.1954 255 40 40
23.6357 6.3390 2.1954 255 40 40
23.6108 6.3255 2.1954 255 40 40
23.5860 6.3120 2.1954 255 40 40
23.5612 6.2984 2.1954 255 40 40
23.5363 6.2849 2.1954 255 40 40
23.5115 6.2714 2.1954 255 40 40
23.4867 6.2578 2.1954 255 40 40
23.4619 6.2443 2.1954 255 40 40
23.4370 6.2308 2.1954 255 40 40
23.4122 6.2172 2.1954 255 40 40
23.3874 6.2037 2.1954 255 40 40
23.3625 6.1902 2.1954 255 40 40
23.3377 6.1766 2.1954 255 40 40
23.3129 6.1631 2.1954 255 40 40
23.2880 6.1495 2.1954 255 40 40
23.2632 6.1360 2.1954 255 40 40
23.2384 6.1225 2.1954 255 40 40
23.2135 6.1089 2.1954 255 40 40
23.1887 6.0954 2.1954 255 40 40
23.1639 6.0819 2.1954 255 40 40
23.1391 6.0683 2.1954 255 40 40
23.1142 6.0548 2.1954 255 40 40
23.0894 6.0413 2.1954 255 40 40
23.0646 6.0277 2.1954 255 40 40
23.0397 6.0142 2.1954 255 40 40
23.0149 6.0007 2.1954 255 40 40
22.9901 5.9871 2.1954 255 40 40
22.9652 5.9736 2.1954 255 40 40
22.9404 5.9601 2.1954 255 40 40
22.9156 5.9465 2.1954 255 40 40
22.8908 5.9330 2.1954 255 40 40
22.8659 5.9194 2.1954 255 40 40
22.8411 5.9059 2.1954 255 40 40
22.8163 5.8924 2.1954 255 40 40
22.7914 5.8788 2.1954 255 40 40
22.7666 5.8653 2.1954 255 40 40
22.7418 5.8518 2.1954 255 40 40
22.7169 5.8382 2.1954 255 40 40
22.6921 5.8247 2.1954 255 40 40
22.6673 5.8112 2.1954 255 40 40
22.6425 5.7976 2.1954 255 40 40
22.6176 5.7841 2.1954 255 40 40
22.5928 5.7706 2.1954 255 40 40
22.5680 5.7570 2.1954 255 40 40
22.5431 5.7435 2.1954 255 40 40
22.5183 5.7300 2.1954 255 40 40
22.4935 5.7164 2.1954 255 40 40
22.4686 5.7029 2.1954 255 40 40
22.4438 5.6893 2.1954 255 40 40
22.4190 5.6758 2.1954 255 40 40
22.3941 5.6623 2.1954 255 40 40
22.3693 5.6487 2.1954 255 40 40
22.3445 5.6352 2.1954 255 40 40
22.3197 5.6217 2.1954 255 40 40
22.2948 5.6081 2.1954 255 40 40
22.2700 5.5946 2.1954 255 40 40
22.2452 5.5811 2.1954 255 40 40
22.2203 5.5675 2.1954 255 40 40
22.1955 5.5540 2.1954 255 40 40
22.1707 5.5405 2.1954 255 40 40
22.1458 5.5269 2.1954 255 40 40
22.1210 5.5134 2.1954 255 40 40
22.0962 5.4999 2.1954 255 40 40
22.0714 5.4863 2.1954 255 40 40
22.0465 5.4728 2.1954 255 40 40
22.0217 5.4592 2.1954 255 40 40
21.9969 5.4457 2.1954 255 40 40
21.9720 5.4322 2.1954 255 40 40
21.9472 5.4186 2.1954 255 40 40
21.9224 5.4051 2.1954 255 40 40
21.8975 5.3916 2.1954 255 40 40
21.8727 5.3780 2.1954 255 40 40
21.8479 5.3645 2.1954 255 40 40
21.8230 5.3510 2.1954 255 40 40
21.7982 5.3374 2.1954 255 40 40
21.7734 5.3239 2.1954 255 40 40
21.7486 5.3104 2.1954 255 40 40
21.7237 5.2968 2.1954 255 40 40
21.6989 5.2833 2.1954 255 40 40
21.6741 5.2698 2.1954 255 40 40
21.6492 5.2562 2.1954 255 40 40
21.6244 5.2427 2.1954 255 40 40
21.5996 5.2291 2.1954 255 40 40
21.5747 5.2156 2.1954 255 40 40
21.5499 5.2021 2.1954 255 40 40
21.5251 5.1885 2.1954 255 40 40
21.5003 5.1750 2.1954 255 40 40
21.4754 5.1615 2.1954 255 40 40
21.4506 5.1479 2.1954 255 40 40
21.4258 5.1344 2.1954 255 40 40
21.4009 5.1209 2.1954 255 40 40
21.3761 5.1073 2.1954 255 40 40
21.3513 5.0938 2.1954 255 40 40
21.3264 5.0803 2.1954 255 40 40
21.3016 5.0667 2.1954 255 40 40
21.2768 5.0532 2.1954 255 40 40
21.2519 5.0397 2.1954 255 40 40
21.2271 5.0261 2.1954 255 40 40
21.2023 5.0126 2.1954 255 40 40
21.1775 4.9990 2.1954 255 40 40
21.1526 4.9855 2.1954 255 40 40
21.1278 4.9720 2.1954 255 40 40
21.1030 4.9584 2.1954 255 40 40
21.0781 4.9449 2.1954 255 40 40
21.0533 4.9314 2.1954 255 40 40
21.0285 4.9178 2.1954 255 40 40
21.0036 4.9043 2.1954 255 40 40
20.9788 4.8908 2.1954 255 40 40
20.9540 4.8772 2.1954 255 40 40
20.9292 4.8637 2.1954 255 40 40
20.9043 4.8502 2.1954 255 40 40
20.8795 4.8366 2.1954 255 40 40
20.8547 4.8231 2.1954 255 40 40
20.8298 4.8096 2.1954 255 40 40
20.8050 4.7960 2.1954 255 40 40
20.7802 4.7825 2.1954 255 40 40
20.7553 4.7690 2.1954 255 40 40
20.7305 4.7554 2.1954 255 40 40
20.7057 4.7419 2.1954 255 40 40
20.6808 4.7283 2.1954 255 40 40
20.6560 4.7148 2.1954 255 40 40
20.6312 4.7013 2.1954 255 40 40
20.6064 4.6877 2.1954 255 40 40
20.5815 4.6742 2.1954 255 40 40
20.5567 4.6607 2.1954 255 40 40
20.5319 4.6471 2.1954 255 40 40
20.5070 4.6336 2.1954 255 40 40
20.4822 4.6201 2.1954 255 40 40
20.4574 4.6065 2.1954 255 40 40
20.4325 4.5930 2.1954 255 40 40
20.4077 4.5795 2.1954 255 40 40
20.3829 4.5659 2.1954 255 40 40
20.3581 4.5524 2.1954 255 40 40
20.3332 4.5389 2.1954 255 40 40
20.3084 4.5253 2.1954 255 40 40
20.2836 4.5118 2.1954 255 40 40
20.2587 4.4982 2.1954 255 40 40
20.2339 4.4847 2.1954 255 40 40
20.2091 4.4712 2.1954 255 40 40
20.1842 4.4576 2.1954 255 40 40
20.1594 4.4441 2.1954 255 40 40
20.1346 4.4306 2.1954 255 40 40
20.1346 4.4306 2.1954 255 40 40
20.1401 4.4205 2.1954 255 40 40
20.1456 4.4104 2.1954 255 40 40
20.1511 4.4003 2.1954 255 40 40
20.1566 4.3902 2.1954 255 40 40
20.1621 4.3802 2.1954 255 40 40
20.1676 4.3701 2.1954 255 40 40
20.1730 4.3600 2.1954 255 40 40
20.1785 4.3499 2.1954 255 40 40
20.1840 4.3398 2.1954 255 40 40
20.1895 4.3298 2.1954 255 40 40
20.1950 4.3197 2.1954 255 40 40
20.2005 4.3096 2.1954 255 40 40
20.2060 4.2995 2.1954 255 40 40
20.2115 4.2894 2.1954 255 40 40
20.2170 4.2793 2.1954 255 40 40
20.2225 4.2693 2.1954 255 40 40
20.2280 4.2592 2.1954 255 40 40
20.2335 4.2491 2.1954 255 40 40
20.2390 4.2390 2.1954 255 40 40
20.2445 4.2289 2.1954 255 40 40
20.2500 4.2189 2.1954 255 40 40
20.2555 4.2088 2.1954 255 40 40
20.2610 4.1987 2.1954 255 40 40
20.2665 4.1886 2.1954 255 40 40
20.2720 4.1785 2.1954 255 40 40
20.2775 4.1685 2.1954 255 40 40
20.2830 4.1584 2.1954 255 40 40
20.2885 4.1483 2.1954 255 40 40
20.2939 4.1382 2.1954 255 40 40
20.2994 4.1281 2.1954 255 40 40
20.3049 4.1180 2.1954 255 40 40
20.3104 4.1080 2.1954 255 40 40
20.3159 4.0979 2.1954 255 40 40
20.3214 4.0878 2.1954 255 40 40
20.3269 4.0777 2.1954 255 40 40
20.3324 4.0676 2.1954 255 40 40
20.3379 4.0576 2.1954 255 40 40
20.3434 4.0475 2.1954 255 40 40
20.3489 4.0374 2.1954 255 40 40
20.3544 4.0273 2.1954 255 40 40
20.3599 4.0172 2.1954 255 40 40
20.3654 4.0071 2.1954 255 40 40
20.3709 3.9971 2.1954 255 40 40
20.3764 3.9870 2.1954 255 40 40
20.3819 3.9769 2.1954 255 40 40
20.3874 3.9668 2.1954 255 40 40
20.3929 3.9567 2.1954 255 40 40
20.3984 3.9467 2.1954 255 40 40
20.4039 3.9366 2.1954 255 40 40
20.4094 3.9265 2.1954 255 40 40
20.4149 3.9164 2.1954 255 40 40
20.4203 3.9063 2.1954 255 40 40
20.4258 3.8963 2.1954 255 40 40
20.4313 3.8862 2.1954 255 40 40
20.4368 3.8761 2.1954 255 40 40
20.4423 3.8660 2.1954 255 40 40
20.4478 3.8559 2.1954 255 40 40
20.4533 3.8458 2.1954 255 40 40
20.4588 3.8358 2.1954 255 40 40
20.4643 3.8257 2.1954 255 40 40
20.4698 3.8156 2.1954 255 40 40
20.4753 3.8055 2.1954 255 40 40
20.4808 3.7954 2.1954 255 40 40
20.4863 3.7854 2.1954 255 40 40
20.4918 3.7753 2.1954 255 40 40
20.4973 3.7652 2.1954 255 40 40
20.5028 3.7551 2.1954 255 40 40
20.5083 3.7450 2.1954 255 40 40
20.5138 3.7350 2.1954 255 40 40
20.5193 3.7249 2.1954 255 40 40
20.5248 3.7148 2.1954 255 40 40
20.5303 3.7047 2.1954 255 40 40
20.5357 3.6946 2.1954 255 40 40
