ply
format ascii 1.0
element vertex 1449
property float x
property float y
property float z
property uchar red
property uchar green
property uchar blue
end_header
31.0407 13.9480 0.4001 255 200 100
31.1423 11.9203 0.4018 255 200 100
31.1456 12.1184 0.4012 255 200 100
31.1737 11.5167 0.4014 255 200 100
34.2015 11.5364 1.0848 255 200 100
34.3119 12.2352 1.0863 255 200 100
33.2978 14.5404 0.2334 255 40 40
33.2994 14.5369 0.2334 255 40 40
33.3011 14.5333 0.2334 255 40 40
33.3028 14.5297 0.2334 255 40 40
33.3044 14.5261 0.2334 255 40 40
33.3061 14.5225 0.2334 255 40 40
33.3078 14.5189 0.2334 255 40 40
33.3094 14.5153 0.2334 255 40 40
33.3111 14.5117 0.2334 255 40 40
33.3128 14.5081 0.2334 255 40 40
33.3144 14.5045 0.2334 255 40 40
33.3161 14.5009 0.2334 255 40 40
33.3178 14.4973 0.2334 255 40 40
33.3194 14.4937 0.2334 255 40 40
33.3211 14.4902 0.2334 255 40 40
33.3228 14.4866 0.2334 255 40 40
33.3244 14.4830 0.2334 255 40 40
33.3261 14.4794 0.2334 255 40 40
33.3278 14.4758 0.2334 255 40 40
33.3294 14.4722 0.2334 255 40 40
33.3311 14.4686 0.2334 255 40 40
33.3328 14.4650 0.2334 255 40 40
33.3344 14.4614 0.2334 255 40 40
33.3361 14.4578 0.2334 255 40 40
33.3378 14.4542 0.2334 255 40 40
33.3394 14.4506 0.2334 255 40 40
33.3411 14.4471 0.2334 255 40 40
33.3428 14.4435 0.2334 255 40 40
33.3444 14.4399 0.2334 255 40 40
33.3461 14.4363 0.2334 255 40 40
33.3478 14.4327 0.2334 255 40 40
33.3494 14.4291 0.2334 255 40 40
33.3511 14.4255 0.2334 255 40 40
33.3528 14.4219 0.2334 255 40 40
33.3544 14.4183 0.2334 255 40 40
33.3561 14.4147 0.2334 255 40 40
33.3578 14.4111 0.2334 255 40 40
33.3594 14.4075 0.2334 255 40 40
33.3611 14.4039 0.2334 255 40 40
33.3628 14.4004 0.2334 255 40 40
33.3644 14.3968 0.2334 255 40 40
33.3661 14.3932 0.2334 255 40 40
33.3678 14.3896 0.2334 255 40 40
33.3694 14.3860 0.2334 255 40 40
33.3711 14.3824 0.2334 255 40 40
33.3728 14.3788 0.2334 255 40 40
33.3745 14.3752 0.2334 255 40 40
33.3761 14.3716 0.2334 255 40 40
33.3778 14.3680 0.2334 255 40 40
33.3795 14.3644 0.2334 255 40 40
33.3811 14.3608 0.2334 255 40 40
33.3828 14.3572 0.2334 255 40 40
33.3845 14.3537 0.2334 255 40 40
33.3861 14.3501 0.2334 255 40 40
33.3878 14.3465 0.2334 255 40 40
33.3895 14.3429 0.2334 255 40 40
33.3911 14.3393 0.2334 255 40 40
33.3928 14.3357 0.2334 255 40 40
33.3945 14.3321 0.2334 255 40 40
33.3961 14.3285 0.2334 255 40 40
33.3978 14.3249 0.2334 255 40 40
33.3995 14.3213 0.2334 255 40 40
33.4011 14.3177 0.2334 255 40 40
33.4028 14.3141 0.2334 255 40 40
33.4045 14.3105 0.2334 255 40 40
33.4061 14.3070 0.2334 255 40 40
33.4078 14.3034 0.2334 255 40 40
33.4095 14.2998 0.2334 255 40 40
33.4111 14.2962 0.2334 255 40 40
33.4128 14.2926 0.2334 255 40 40
33.4145 14.2890 0.2334 255 40 40
33.4161 14.2854 0.2334 255 40 40
33.4178 14.2818 0.2334 255 40 40
33.4195 14.2782 0.2334 255 40 40
33.4211 14.2746 0.2334 255 40 40
33.4228 14.2710 0.2334 255 40 40
33.4245 14.2674 0.2334 255 40 40
33.4261 14.2639 0.2334 255 40 40
33.4278 14.2603 0.2334 255 40 40
33.4295 14.2567 0.2334 255 40 40
33.4311 14.2531 0.2334 255 40 40
33.4328 14.2495 0.2334 255 40 40
33.4345 14.2459 0.2334 255 40 40
33.4361 14.2423 0.2334 255 40 40
33.4378 14.2387 0.2334 255 40 40
33.4395 14.2351 0.2334 255 40 40
33.4411 14.2315 0.2334 255 40 40
33.4428 14.2279 0.2334 255 40 40
33.4445 14.2243 0.2334 255 40 40
33.4461 14.2207 0.2334 255 40 40
33.4478 14.2172 0.2334 255 40 40
33.4495 14.2136 0.2334 255 40 40
33.4511 14.2100 0.2334 255 40 40
33.4528 14.2064 0.2334 255 40 40
33.4545 14.2028 0.2334 255 40 40
33.4561 14.1992 0.2334 255 40 40
33.4578 14.1956 0.2334 255 40 40
33.4595 14.1920 0.2334 255 40 40
33.4611 14.1884 0.2334 255 40 40
33.4628 14.1848 0.2334 255 40 40
33.4645 14.1812 0.2334 255 40 40
33.4661 14.1776 0.2334 255 40 40
33.4678 14.1740 0.2334 255 40 40
33.4695 14.1705 0.2334 255 40 40
33.4711 14.1669 0.2334 255 40 40
33.4728 14.1633 0.2334 255 40 40
33.4745 14.1597 0.2334 255 40 40
33.4761 14.1561 0.2334 255 40 40
33.4778 14.1525 0.2334 255 40 40
33.4795 14.1489 0.2334 255 40 40
33.4811 14.1453 0.2334 255 40 40
33.4828 14.1417 0.2334 255 40 40
33.4845 14.1381 0.2334 255 40 40
33.4861 14.1345 0.2334 255 40 40
33.4878 14.1309 0.2334 255 40 40
33.4895 14.1274 0.2334 255 40 40
33.4911 14.1238 0.2334 255 40 40
33.4928 14.1202 0.2334 255 40 40
33.4945 14.1166 0.2334 255 40 40
33.4962 14.1130 0.2334 255 40 40
33.4978 14.1094 0.2334 255 40 40
33.4995 14.1058 0.2334 255 40 40
33.5012 14.1022 0.2334 255 40 40
33.5028 14.0986 0.2334 255 40 40
33.5045 14.0950 0.2334 255 40 40
33.5062 14.0914 0.2334 255 40 40
33.5078 14.0878 0.2334 255 40 40
33.5095 14.0842 0.2334 255 40 40
33.5112 14.0807 0.2334 255 40 40
33.5128 14.0771 0.2334 255 40 40
33.5145 14.0735 0.2334 255 40 40
33.5162 14.0699 0.2334 255 40 40
33.5178 14.0663 0.2334 255 40 40
33.5195 14.0627 0.2334 255 40 40
33.5212 14.0591 0.2334 255 40 40
33.5228 14.0555 0.2334 255 40 40
33.5245 14.0519 0.2334 255 40 40
33.5262 14.0483 0.2334 255 40 40
33.5278 14.0447 0.2334 255 40 40
33.5295 14.0411 0.2334 255 40 40
33.5312 14.0375 0.2334 255 40 40
33.5328 14.0340 0.2334 255 40 40
33.5345 14.0304 0.2334 255 40 40
33.5362 14.0268 0.2334 255 40 40
33.5378 14.0232 0.2334 255 40 40
33.5395 14.0196 0.2334 255 40 40
33.5412 14.0160 0.2334 255 40 40
33.5428 14.0124 0.2334 255 40 40
33.5445 14.0088 0.2334 255 40 40
33.5462 14.0052 0.2334 255 40 40
33.5478 14.0016 0.2334 255 40 40
33.5495 13.9980 0.2334 255 40 40
33.5512 13.9944 0.2334 255 40 40
33.5528 13.9908 0.2334 255 40 40
33.5545 13.9873 0.2334 255 40 40
33.5562 13.9837 0.2334 255 40 40
33.5578 13.9801 0.2334 255 40 40
33.5595 13.9765 0.2334 255 40 40
33.5612 13.9729 0.2334 255 40 40
33.5628 13.9693 0.2334 255 40 40
33.5645 13.9657 0.2334 255 40 40
33.5662 13.9621 0.2334 255 40 40
33.5678 13.9585 0.2334 255 40 40
33.5695 13.9549 0.2334 255 40 40
33.5712 13.9513 0.2334 255 40 40
33.5728 13.9477 0.2334 255 40 40
33.5728 13.9477 0.2334 255 40 40
33.5769 13.9496 0.2334 255 40 40
33.5809 13.9515 0.2334 255 40 40
33.5849 13.9533 0.2334 255 40 40
33.5889 13.9552 0.2334 255 40 40
33.5929 13.9571 0.2334 255 40 40
33.5969 13.9589 0.2334 255 40 40
33.6010 13.9608 0.2334 255 40 40
33.6050 13.9627 0.2334 255 40 40
33.6090 13.9645 0.2334 255 40 40
33.6130 13.9664 0.2334 255 40 40
33.6170 13.9682 0.2334 255 40 40
33.6210 13.9701 0.2334 255 40 40
33.6251 13.9720 0.2334 255 40 40
33.6291 13.9738 0.2334 255 40 40
33.6331 13.9757 0.2334 255 40 40
33.6371 13.9776 0.2334 255 40 40
33.6411 13.9794 0.2334 255 40 40
33.6451 13.9813 0.2334 255 40 40
33.6492 13.9832 0.2334 255 40 40
33.6532 13.9850 0.2334 255 40 40
33.6572 13.9869 0.2334 255 40 40
33.6612 13.9888 0.2334 255 40 40
33.6652 13.9906 0.2334 255 40 40
33.6692 13.9925 0.2334 255 40 40
33.6733 13.9943 0.2334 255 40 40
33.6773 13.9962 0.2334 255 40 40
33.6813 13.9981 0.2334 255 40 40
33.6853 13.9999 0.2334 255 40 40
33.6893 14.0018 0.2334 255 40 40
33.6933 14.0037 0.2334 255 40 40
33.6973 14.0055 0.2334 255 40 40
33.7014 14.0074 0.2334 255 40 40
33.7054 14.0093 0.2334 255 40 40
33.7094 14.0111 0.2334 255 40 40
33.7134 14.0130 0.2334 255 40 40
33.7174 14.0149 0.2334 255 40 40
33.7214 14.0167 0.2334 255 40 40
33.7255 14.0186 0.2334 255 40 40
33.7295 14.0204 0.2334 255 40 40
33.7335 14.0223 0.2334 255 40 40
33.7375 14.0242 0.2334 255 40 40
33.7415 14.0260 0.2334 255 40 40
33.7455 14.0279 0.2334 255 40 40
33.7496 14.0298 0.2334 255 40 40
33.7536 14.0316 0.2334 255 40 40
33.7576 14.0335 0.2334 255 40 40
33.7616 14.0354 0.2334 255 40 40
33.7656 14.0372 0.2334 255 40 40
33.7696 14.0391 0.2334 255 40 40
33.7737 14.0409 0.2334 255 40 40
33.7777 14.0428 0.2334 255 40 40
33.7817 14.0447 0.2334 255 40 40
33.7857 14.0465 0.2334 255 40 40
33.7897 14.0484 0.2334 255 40 40
33.7937 14.0503 0.2334 255 40 40
33.7978 14.0521 0.2334 255 40 40
33.8018 14.0540 0.2334 255 40 40
33.8058 14.0559 0.2334 255 40 40
33.8098 14.0577 0.2334 255 40 40
33.8138 14.0596 0.2334 255 40 40
33.8178 14.0615 0.2334 255 40 40
33.8219 14.0633 0.2334 255 40 40
33.8259 14.0652 0.2334 255 40 40
33.8299 14.0670 0.2334 255 40 40
33.8339 14.0689 0.2334 255 40 40
33.8379 14.0708 0.2334 255 40 40
33.8419 14.0726 0.2334 255 40 40
33.8460 14.0745 0.2334 255 40 40
33.8500 14.0764 0.2334 255 40 40
33.8540 14.0782 0.2334 255 40 40
33.8580 14.0801 0.2334 255 40 40
33.8620 14.0820 0.2334 255 40 40
33.8660 14.0838 0.2334 255 40 40
33.8701 14.0857 0.2334 255 40 40
33.8741 14.0876 0.2334 255 40 40
33.8781 14.0894 0.2334 255 40 40
33.8821 14.0913 0.2334 255 40 40
33.8861 14.0931 0.2334 255 40 40
33.8901 14.0950 0.2334 255 40 40
33.8942 14.0969 0.2334 255 40 40
33.8982 14.0987 0.2334 255 40 40
33.9022 14.1006 0.2334 255 40 40
33.9062 14.1025 0.2334 255 40 40
33.9102 14.1043 0.2334 255 40 40
33.9142 14.1062 0.2334 255 40 40
33.9183 14.1081 0.2334 255 40 40
33.9223 14.1099 0.2334 255 40 40
33.9263 14.1118 0.2334 255 40 40
33.9303 14.1136 0.2334 255 40 40
33.9343 14.1155 0.2334 255 40 40
33.9383 14.1174 0.2334 255 40 40
33.9424 14.1192 0.2334 255 40 40
33.9464 14.1211 0.2334 255 40 40
33.9504 14.1230 0.2334 255 40 40
33.9544 14.1248 0.2334 255 40 40
33.9584 14.1267 0.2334 255 40 40
33.9624 14.1286 0.2334 255 40 40
33.9665 14.1304 0.2334 255 40 40
33.9705 14.1323 0.2334 255 40 40
33.9745 14.1342 0.2334 255 40 40
33.9785 14.1360 0.2334 255 40 40
33.9825 14.1379 0.2334 255 40 40
33.9865 14.1397 0.2334 255 40 40
33.9906 14.1416 0.2334 255 40 40
33.9946 14.1435 0.2334 255 40 40
33.9986 14.1453 0.2334 255 40 40
34.0026 14.1472 0.2334 255 40 40
34.0066 14.1491 0.2334 255 40 40
34.0106 14.1509 0.2334 255 40 40
34.0147 14.1528 0.2334 255 40 40
34.0187 14.1547 0.2334 255 40 40
34.0227 14.1565 0.2334 255 40 40
34.0267 14.1584 0.2334 255 40 40
34.0307 14.1602 0.2334 255 40 40
34.0347 14.1621 0.2334 255 40 40
34.0388 14.1640 0.2334 255 40 40
34.0428 14.1658 0.2334 255 40 40
34.0468 14.1677 0.2334 255 40 40
34.0508 14.1696 0.2334 255 40 40
34.0548 14.1714 0.2334 255 40 40
34.0588 14.1733 0.2334 255 40 40
34.0629 14.1752 0.2334 255 40 40
34.0669 14.1770 0.2334 255 40 40
34.0709 14.1789 0.2334 255 40 40
34.0749 14.1808 0.2334 255 40 40
34.0789 14.1826 0.2334 255 40 40
34.0829 14.1845 0.2334 255 40 40
34.0870 14.1863 0.2334 255 40 40
34.0910 14.1882 0.2334 255 40 40
34.0950 14.1901 0.2334 255 40 40
34.0990 14.1919 0.2334 255 40 40
34.1030 14.1938 0.2334 255 40 40
34.1070 14.1957 0.2334 255 40 40
34.1110 14.1975 0.2334 255 40 40
34.1151 14.1994 0.2334 255 40 40
34.1191 14.2013 0.2334 255 40 40
34.1231 14.2031 0.2334 255 40 40
34.1271 14.2050 0.2334 255 40 40
34.1311 14.2069 0.2334 255 40 40
34.1351 14.2087 0.2334 255 40 40
34.1392 14.2106 0.2334 255 40 40
34.1432 14.2124 0.2334 255 40 40
34.1472 14.2143 0.2334 255 40 40
34.1512 14.2162 0.2334 255 40 40
34.1552 14.2180 0.2334 255 40 40
34.1592 14.2199 0.2334 255 40 40
34.1633 14.2218 0.2334 255 40 40
34.1673 14.2236 0.2334 255 40 40
34.1713 14.2255 0.2334 255 40 40
34.1753 14.2274 0.2334 255 40 40
34.1793 14.2292 0.2334 255 40 40
34.1833 14.2311 0.2334 255 40 40
34.1874 14.2329 0.2334 255 40 40
34.1914 14.2348 0.2334 255 40 40
34.1954 14.2367 0.2334 255 40 40
34.1994 14.2385 0.2334 255 40 40
34.2034 14.2404 0.2334 255 40 40
34.2074 14.2423 0.2334 255 40 40
34.2115 14.2441 0.2334 255 40 40
34.2155 14.2460 0.2334 255 40 40
34.2195 14.2479 0.2334 255 40 40
34.2235 14.2497 0.2334 255 40 40
34.2275 14.2516 0.2334 255 40 40
34.2315 14.2535 0.2334 255 40 40
34.2356 14.2553 0.2334 255 40 40
34.2356 14.2553 0.2334 255 40 40
34.2339 14.2589 0.2334 255 40 40
34.2322 14.2625 0.2334 255 40 40
34.2306 14.2661 0.2334 255 40 40
34.2289 14.2697 0.2334 255 40 40
34.2272 14.2733 0.2334 255 40 40
34.2256 14.2769 0.2334 255 40 40
34.2239 14.2805 0.2334 255 40 40
34.2222 14.2841 0.2334 255 40 40
34.2206 14.2876 0.2334 255 40 40
34.2189 14.2912 0.2334 255 40 40
34.2172 14.2948 0.2334 255 40 40
34.2156 14.2984 0.2334 255 40 40
34.2139 14.3020 0.2334 255 40 40
34.2122 14.3056 0.2334 255 40 40
34.2106 14.3092 0.2334 255 40 40
34.2089 14.3128 0.2334 255 40 40
34.2072 14.3164 0.2334 255 40 40
34.2056 14.3200 0.2334 255 40 40
34.2039 14.3236 0.2334 255 40 40
34.2022 14.3272 0.2334 255 40 40
34.2006 14.3308 0.2334 255 40 40
34.1989 14.3343 0.2334 255 40 40
34.1972 14.3379 0.2334 255 40 40
34.1955 14.3415 0.2334 255 40 40
34.1939 14.3451 0.2334 255 40 40
34.1922 14.3487 0.2334 255 40 40
34.1905 14.3523 0.2334 255 40 40
34.1889 14.3559 0.2334 255 40 40
34.1872 14.3595 0.2334 255 40 40
34.1855 14.3631 0.2334 255 40 40
34.1839 14.3667 0.2334 255 40 40
34.1822 14.3703 0.2334 255 40 40
34.1805 14.3739 0.2334 255 40 40
34.1789 14.3774 0.2334 255 40 40
34.1772 14.3810 0.2334 255 40 40
34.1755 14.3846 0.2334 255 40 40
34.1739 14.3882 0.2334 255 40 40
34.1722 14.3918 0.2334 255 40 40
34.1705 14.3954 0.2334 255 40 40
34.1689 14.3990 0.2334 255 40 40
34.1672 14.4026 0.2334 255 40 40
34.1655 14.4062 0.2334 255 40 40
34.1639 14.4098 0.2334 255 40 40
34.1622 14.4134 0.2334 255 40 40
34.1605 14.4170 0.2334 255 40 40
34.1589 14.4206 0.2334 255 40 40
34.1572 14.4241 0.2334 255 40 40
34.1555 14.4277 0.2334 255 40 40
34.1539 14.4313 0.2334 255 40 40
34.1522 14.4349 0.2334 255 40 40
34.1505 14.4385 0.2334 255 40 40
34.1489 14.4421 0.2334 255 40 40
34.1472 14.4457 0.2334 255 40 40
34.1455 14.4493 0.2334 255 40 40
34.1439 14.4529 0.2334 255 40 40
34.1422 14.4565 0.2334 255 40 40
34.1405 14.4601 0.2334 255 40 40
34.1389 14.4637 0.2334 255 40 40
34.1372 14.4673 0.2334 255 40 40
34.1355 14.4708 0.2334 255 40 40
34.1339 14.4744 0.2334 255 40 40
34.1322 14.4780 0.2334 255 40 40
34.1305 14.4816 0.2334 255 40 40
34.1289 14.4852 0.2334 255 40 40
34.1272 14.4888 0.2334 255 40 40
34.1255 14.4924 0.2334 255 40 40
34.1239 14.4960 0.2334 255 40 40
34.1222 14.4996 0.2334 255 40 40
34.1205 14.5032 0.2334 255 40 40
34.1189 14.5068 0.2334 255 40 40
34.1172 14.5104 0.2334 255 40 40
34.1155 14.5140 0.2334 255 40 40
34.1139 14.5175 0.2334 255 40 40
34.1122 14.5211 0.2334 255 40 40
34.1105 14.5247 0.2334 255 40 40
34.1089 14.5283 0.2334 255 40 40
34.1072 14.5319 0.2334 255 40 40
34.1055 14.5355 0.2334 255 40 40
34.1039 14.5391 0.2334 255 40 40
34.1022 14.5427 0.2334 255 40 40
34.1005 14.5463 0.2334 255 40 40
34.0989 14.5499 0.2334 255 40 40
34.0972 14.5535 0.2334 255 40 40
34.0955 14.5571 0.2334 255 40 40
34.0939 14.5606 0.2334 255 40 40
34.0922 14.5642 0.2334 255 40 40
34.0905 14.5678 0.2334 255 40 40
34.0889 14.5714 0.2334 255 40 40
34.0872 14.5750 0.2334 255 40 40
34.0855 14.5786 0.2334 255 40 40
34.0839 14.5822 0.2334 255 40 40
34.0822 14.5858 0.2334 255 40 40
34.0805 14.5894 0.2334 255 40 40
34.0789 14.5930 0.2334 255 40 40
34.0772 14.5966 0.2334 255 40 40
34.0755 14.6002 0.2334 255 40 40
34.0739 14.6038 0.2334 255 40 40
34.0722 14.6073 0.2334 255 40 40
34.0705 14.6109 0.2334 255 40 40
34.0689 14.6145 0.2334 255 40 40
34.0672 14.6181 0.2334 255 40 40
34.0655 14.6217 0.2334 255 40 40
34.0639 14.6253 0.2334 255 40 40
34.0622 14.6289 0.2334 255 40 40
34.0605 14.6325 0.2334 255 40 40
34.0588 14.6361 0.2334 255 40 40
34.0572 14.6397 0.2334 255 40 40
34.0555 14.6433 0.2334 255 40 40
34.0538 14.6469 0.2334 255 40 40
34.0522 14.6505 0.2334 255 40 40
34.0505 14.6540 0.2334 255 40 40
34.0488 14.6576 0.2334 255 40 40
34.0472 14.6612 0.2334 255 40 40
34.0455 14.6648 0.2334 255 40 40
34.0438 14.6684 0.2334 255 40 40
34.0422 14.6720 0.2334 255 40 40
34.0405 14.6756 0.2334 255 40 40
34.0388 14.6792 0.2334 255 40 40
34.0372 14.6828 0.2334 255 40 40
34.0355 14.6864 0.2334 255 40 40
34.0338 14.6900 0.2334 255 40 40
34.0322 14.6936 0.2334 255 40 40
34.0305 14.6971 0.2334 255 40 40
34.0288 14.7007 0.2334 255 40 40
34.0272 14.7043 0.2334 255 40 40
34.0255 14.7079 0.2334 255 40 40
34.0238 14.7115 0.2334 255 40 40
34.0222 14.7151 0.2334 255 40 40
34.0205 14.7187 0.2334 255 40 40
34.0188 14.7223 0.2334 255 40 40
34.0172 14.7259 0.2334 255 40 40
34.0155 14.7295 0.2334 255 40 40
34.0138 14.7331 0.2334 255 40 40
34.0122 14.7367 0.2334 255 40 40
34.0105 14.7403 0.2334 255 40 40
34.0088 14.7438 0.2334 255 40 40
34.0072 14.7474 0.2334 255 40 40
34.0055 14.7510 0.2334 255 40 40
34.0038 14.7546 0.2334 255 40 40
34.0022 14.7582 0.2334 255 40 40
34.0005 14.7618 0.2334 255 40 40
33.9988 14.7654 0.2334 255 40 40
33.9972 14.7690 0.2334 255 40 40
33.9955 14.7726 0.2334 255 40 40
33.9938 14.7762 0.2334 255 40 40
33.9922 14.7798 0.2334 255 40 40
33.9905 14.7834 0.2334 255 40 40
33.9888 14.7870 0.2334 255 40 40
33.9872 14.7905 0.2334 255 40 40
33.9855 14.7941 0.2334 255 40 40
33.9838 14.7977 0.2334 255 40 40
33.9822 14.8013 0.2334 255 40 40
33.9805 14.8049 0.2334 255 40 40
33.9788 14.8085 0.2334 255 40 40
33.9772 14.8121 0.2334 255 40 40
33.9755 14.8157 0.2334 255 40 40
33.9738 14.8193 0.2334 255 40 40
33.9722 14.8229 0.2334 255 40 40
33.9705 14.8265 0.2334 255 40 40
33.9688 14.8301 0.2334 255 40 40
33.9672 14.8337 0.2334 255 40 40
33.9655 14.8372 0.2334 255 40 40
33.9638 14.8408 0.2334 255 40 40
33.9622 14.8444 0.2334 255 40 40
33.9605 14.8480 0.2334 255 40 40
33.9605 14.8480 0.2334 255 40 40
33.9565 14.8462 0.2334 255 40 40
33.9525 14.8443 0.2334 255 40 40
33.9484 14.8424 0.2334 255 40 40
33.9444 14.8406 0.2334 255 40 40
33.9404 14.8387 0.2334 255 40 40
33.9364 14.8368 0.2334 255 40 40
33.9324 14.8350 0.2334 255 40 40
33.9284 14.8331 0.2334 255 40 40
33.9243 14.8312 0.2334 255 40 40
33.9203 14.8294 0.2334 255 40 40
33.9163 14.8275 0.2334 255 40 40
33.9123 14.8256 0.2334 255 40 40
33.9083 14.8238 0.2334 255 40 40
33.9043 14.8219 0.2334 255 40 40
33.9002 14.8201 0.2334 255 40 40
33.8962 14.8182 0.2334 255 40 40
33.8922 14.8163 0.2334 255 40 40
33.8882 14.8145 0.2334 255 40 40
33.8842 14.8126 0.2334 255 40 40
33.8802 14.8107 0.2334 255 40 40
33.8761 14.8089 0.2334 255 40 40
33.8721 14.8070 0.2334 255 40 40
33.8681 14.8051 0.2334 255 40 40
33.8641 14.8033 0.2334 255 40 40
33.8601 14.8014 0.2334 255 40 40
33.8561 14.7996 0.2334 255 40 40
33.8520 14.7977 0.2334 255 40 40
33.8480 14.7958 0.2334 255 40 40
33.8440 14.7940 0.2334 255 40 40
33.8400 14.7921 0.2334 255 40 40
33.8360 14.7902 0.2334 255 40 40
33.8320 14.7884 0.2334 255 40 40
33.8279 14.7865 0.2334 255 40 40
33.8239 14.7846 0.2334 255 40 40
33.8199 14.7828 0.2334 255 40 40
33.8159 14.7809 0.2334 255 40 40
33.8119 14.7790 0.2334 255 40 40
33.8079 14.7772 0.2334 255 40 40
33.8038 14.7753 0.2334 255 40 40
33.7998 14.7735 0.2334 255 40 40
33.7958 14.7716 0.2334 255 40 40
33.7918 14.7697 0.2334 255 40 40
33.7878 14.7679 0.2334 255 40 40
33.7838 14.7660 0.2334 255 40 40
33.7797 14.7641 0.2334 255 40 40
33.7757 14.7623 0.2334 255 40 40
33.7717 14.7604 0.2334 255 40 40
33.7677 14.7585 0.2334 255 40 40
33.7637 14.7567 0.2334 255 40 40
33.7597 14.7548 0.2334 255 40 40
33.7556 14.7530 0.2334 255 40 40
33.7516 14.7511 0.2334 255 40 40
33.7476 14.7492 0.2334 255 40 40
33.7436 14.7474 0.2334 255 40 40
33.7396 14.7455 0.2334 255 40 40
33.7356 14.7436 0.2334 255 40 40
33.7315 14.7418 0.2334 255 40 40
33.7275 14.7399 0.2334 255 40 40
33.7235 14.7380 0.2334 255 40 40
33.7195 14.7362 0.2334 255 40 40
33.7155 14.7343 0.2334 255 40 40
33.7115 14.7324 0.2334 255 40 40
33.7074 14.7306 0.2334 255 40 40
33.7034 14.7287 0.2334 255 40 40
33.6994 14.7269 0.2334 255 40 40
33.6954 14.7250 0.2334 255 40 40
33.6914 14.7231 0.2334 255 40 40
33.6874 14.7213 0.2334 255 40 40
33.6833 14.7194 0.2334 255 40 40
33.6793 14.7175 0.2334 255 40 40
33.6753 14.7157 0.2334 255 40 40
33.6713 14.7138 0.2334 255 40 40
33.6673 14.7119 0.2334 255 40 40
33.6633 14.7101 0.2334 255 40 40
33.6592 14.7082 0.2334 255 40 40
33.6552 14.7063 0.2334 255 40 40
33.6512 14.7045 0.2334 255 40 40
33.6472 14.7026 0.2334 255 40 40
33.6432 14.7008 0.2334 255 40 40
33.6392 14.6989 0.2334 255 40 40
33.6352 14.6970 0.2334 255 40 40
33.6311 14.6952 0.2334 255 40 40
33.6271 14.6933 0.2334 255 40 40
33.6231 14.6914 0.2334 255 40 40
33.6191 14.6896 0.2334 255 40 40
33.6151 14.6877 0.2334 255 40 40
33.6110 14.6858 0.2334 255 40 40
33.6070 14.6840 0.2334 255 40 40
33.6030 14.6821 0.2334 255 40 40
33.5990 14.6803 0.2334 255 40 40
33.5950 14.6784 0.2334 255 40 40
33.5910 14.6765 0.2334 255 40 40
33.5870 14.6747 0.2334 255 40 40
33.5829 14.6728 0.2334 255 40 40
33.5789 14.6709 0.2334 255 40 40
33.5749 14.6691 0.2334 255 40 40
33.5709 14.6672 0.2334 255 40 40
33.5669 14.6653 0.2334 255 40 40
33.5629 14.6635 0.2334 255 40 40
33.5588 14.6616 0.2334 255 40 40
33.5548 14.6597 0.2334 255 40 40
33.5508 14.6579 0.2334 255 40 40
33.5468 14.6560 0.2334 255 40 40
33.5428 14.6542 0.2334 255 40 40
33.5388 14.6523 0.2334 255 40 40
33.5347 14.6504 0.2334 255 40 40
33.5307 14.6486 0.2334 255 40 40
33.5267 14.6467 0.2334 255 40 40
33.5227 14.6448 0.2334 255 40 40
33.5187 14.6430 0.2334 255 40 40
33.5147 14.6411 0.2334 255 40 40
33.5106 14.6392 0.2334 255 40 40
33.5066 14.6374 0.2334 255 40 40
33.5026 14.6355 0.2334 255 40 40
33.4986 14.6336 0.2334 255 40 40
33.4946 14.6318 0.2334 255 40 40
33.4906 14.6299 0.2334 255 40 40
33.4865 14.6281 0.2334 255 40 40
33.4825 14.6262 0.2334 255 40 40
33.4785 14.6243 0.2334 255 40 40
33.4745 14.6225 0.2334 255 40 40
33.4705 14.6206 0.2334 255 40 40
33.4665 14.6187 0.2334 255 40 40
33.4624 14.6169 0.2334 255 40 40
33.4584 14.6150 0.2334 255 40 40
33.4544 14.6131 0.2334 255 40 40
33.4504 14.6113 0.2334 255 40 40
33.4464 14.6094 0.2334 255 40 40
33.4424 14.6076 0.2334 255 40 40
33.4383 14.6057 0.2334 255 40 40
33.4343 14.6038 0.2334 255 40 40
33.4303 14.6020 0.2334 255 40 40
33.4263 14.6001 0.2334 255 40 40
33.4223 14.5982 0.2334 255 40 40
33.4183 14.5964 0.2334 255 40 40
33.4142 14.5945 0.2334 255 40 40
33.4102 14.5926 0.2334 255 40 40
33.4062 14.5908 0.2334 255 40 40
33.4022 14.5889 0.2334 255 40 40
33.3982 14.5870 0.2334 255 40 40
33.3942 14.5852 0.2334 255 40 40
33.3901 14.5833 0.2334 255 40 40
33.3861 14.5815 0.2334 255 40 40
33.3821 14.5796 0.2334 255 40 40
33.3781 14.5777 0.2334 255 40 40
33.3741 14.5759 0.2334 255 40 40
33.3701 14.5740 0.2334 255 40 40
33.3660 14.5721 0.2334 255 40 40
33.3620 14.5703 0.2334 255 40 40
33.3580 14.5684 0.2334 255 40 40
33.3540 14.5665 0.2334 255 40 40
33.3500 14.5647 0.2334 255 40 40
33.3460 14.5628 0.2334 255 40 40
33.3419 14.5610 0.2334 255 40 40
33.3379 14.5591 0.2334 255 40 40
33.3339 14.5572 0.2334 255 40 40
33.3299 14.5554 0.2334 255 40 40
33.3259 14.5535 0.2334 255 40 40
33.3219 14.5516 0.2334 255 40 40
33.3178 14.5498 0.2334 255 40 40
33.3138 14.5479 0.2334 255 40 40
33.3098 14.5460 0.2334 255 40 40
33.3058 14.5442 0.2334 255 40 40
33.3018 14.5423 0.2334 255 40 40
33.2978 14.5404 0.2334 255 40 40
33.2978 14.5404 1.9955 255 40 40
33.2994 14.5369 1.9955 255 40 40
33.3011 14.5333 1.9955 255 40 40
33.3028 14.5297 1.9955 255 40 40
33.3044 14.5261 1.9955 255 40 40
33.3061 14.5225 1.9955 255 40 40
33.3078 14.5189 1.9955 255 40 40
33.3094 14.5153 1.9955 255 40 40
33.3111 14.5117 1.9955 255 40 40
33.3128 14.5081 1.9955 255 40 40
33.3144 14.5045 1.9955 255 40 40
33.3161 14.5009 1.9955 255 40 40
33.3178 14.4973 1.9955 255 40 40
33.3194 14.4937 1.9955 255 40 40
33.3211 14.4902 1.9955 255 40 40
33.3228 14.4866 1.9955 255 40 40
33.3244 14.4830 1.9955 255 40 40
33.3261 14.4794 1.9955 255 40 40
33.3278 14.4758 1.9955 255 40 40
33.3294 14.4722 1.9955 255 40 40
33.3311 14.4686 1.9955 255 40 40
33.3328 14.4650 1.9955 255 40 40
33.3344 14.4614 1.9955 255 40 40
33.3361 14.4578 1.9955 255 40 40
33.3378 14.4542 1.9955 255 40 40
33.3394 14.4506 1.9955 255 40 40
33.3411 14.4471 1.9955 255 40 40
33.3428 14.4435 1.9955 255 40 40
33.3444 14.4399 1.9955 255 40 40
33.3461 14.4363 1.9955 255 40 40
33.3478 14.4327 1.9955 255 40 40
33.3494 14.4291 1.9955 255 40 40
33.3511 14.4255 1.9955 255 40 40
33.3528 14.4219 1.9955 255 40 40
33.3544 14.4183 1.9955 255 40 40
33.3561 14.4147 1.9955 255 40 40
33.3578 14.4111 1.9955 255 40 40
33.3594 14.4075 1.9955 255 40 40
33.3611 14.4039 1.9955 255 40 40
33.3628 14.4004 1.9955 255 40 40
33.3644 14.3968 1.9955 255 40 40
33.3661 14.3932 1.9955 255 40 40
33.3678 14.3896 1.9955 255 40 40
33.3694 14.3860 1.9955 255 40 40
33.3711 14.3824 1.9955 255 40 40
33.3728 14.3788 1.9955 255 40 40
33.3745 14.3752 1.9955 255 40 40
33.3761 14.3716 1.9955 255 40 40
33.3778 14.3680 1.9955 255 40 40
33.3795 14.3644 1.9955 255 40 40
33.3811 14.3608 1.9955 255 40 40
33.3828 14.3572 1.9955 255 40 40
33.3845 14.3537 1.9955 255 40 40
33.3861 14.3501 1.9955 255 40 40
33.3878 14.3465 1.9955 255 40 40
33.3895 14.3429 1.9955 255 40 40
33.3911 14.3393 1.9955 255 40 40
33.3928 14.3357 1.9955 255 40 40
33.3945 14.3321 1.9955 255 40 40
33.3961 14.3285 1.9955 255 40 40
33.3978 14.3249 1.9955 255 40 40
33.3995 14.3213 1.9955 255 40 40
33.4011 14.3177 1.9955 255 40 40
33.4028 14.3141 1.9955 255 40 40
33.4045 14.3105 1.9955 255 40 40
33.4061 14.3070 1.9955 255 40 40
33.4078 14.3034 1.9955 255 40 40
33.4095 14.2998 1.9955 255 40 40
33.4111 14.2962 1.9955 255 40 40
33.4128 14.2926 1.9955 255 40 40
33.4145 14.2890 1.9955 255 40 40
33.4161 14.2854 1.9955 255 40 40
33.4178 14.2818 1.9955 255 40 40
33.4195 14.2782 1.9955 255 40 40
33.4211 14.2746 1.9955 255 40 40
33.4228 14.2710 1.9955 255 40 40
33.4245 14.2674 1.9955 255 40 40
33.4261 14.2639 1.9955 255 40 40
33.4278 14.2603 1.9955 255 40 40
33.4295 14.2567 1.9955 255 40 40
33.4311 14.2531 1.9955 255 40 40
33.4328 14.2495 1.9955 255 40 40
33.4345 14.2459 1.9955 255 40 40
33.4361 14.2423 1.9955 255 40 40
33.4378 14.2387 1.9955 255 40 40
33.4395 14.2351 1.9955 255 40 40
33.4411 14.2315 1.9955 255 40 40
33.4428 14.2279 1.9955 255 40 40
33.4445 14.2243 1.9955 255 40 40
33.4461 14.2207 1.9955 255 40 40
33.4478 14.2172 1.9955 255 40 40
33.4495 14.2136 1.9955 255 40 40
33.4511 14.2100 1.9955 255 40 40
33.4528 14.2064 1.9955 255 40 40
33.4545 14.2028 1.9955 255 40 40
33.4561 14.1992 1.9955 255 40 40
33.4578 14.1956 1.9955 255 40 40
33.4595 14.1920 1.9955 255 40 40
33.4611 14.1884 1.9955 255 40 40
33.4628 14.1848 1.9955 255 40 40
33.4645 14.1812 1.9955 255 40 40
33.4661 14.1776 1.9955 255 40 40
33.4678 14.1740 1.9955 255 40 40
33.4695 14.1705 1.9955 255 40 40
33.4711 14.1669 1.9955 255 40 40
33.4728 14.1633 1.9955 255 40 40
33.4745 14.1597 1.9955 255 40 40
33.4761 14.1561 1.9955 255 40 40
33.4778 14.1525 1.9955 255 40 40
33.4795 14.1489 1.9955 255 40 40
33.4811 14.1453 1.9955 255 40 40
33.4828 14.1417 1.9955 255 40 40
33.4845 14.1381 1.9955 255 40 40
33.4861 14.1345 1.9955 255 40 40
33.4878 14.1309 1.9955 255 40 40
33.4895 14.1274 1.9955 255 40 40
33.4911 14.1238 1.9955 255 40 40
33.4928 14.1202 1.9955 255 40 40
33.4945 14.1166 1.9955 255 40 40
33.4962 14.1130 1.9955 255 40 40
33.4978 14.1094 1.9955 255 40 40
33.4995 14.1058 1.9955 255 40 40
33.5012 14.1022 1.9955 255 40 40
33.5028 14.0986 1.9955 255 40 40
33.5045 14.0950 1.9955 255 40 40
33.5062 14.0914 1.9955 255 40 40
33.5078 14.0878 1.9955 255 40 40
33.5095 14.0842 1.9955 255 40 40
33.5112 14.0807 1.9955 255 40 40
33.5128 14.0771 1.9955 255 40 40
33.5145 14.0735 1.9955 255 40 40
33.5162 14.0699 1.9955 255 40 40
33.5178 14.0663 1.9955 255 40 40
33.5195 14.0627 1.9955 255 40 40
33.5212 14.0591 1.9955 255 40 40
33.5228 14.0555 1.9955 255 40 40
33.5245 14.0519 1.9955 255 40 40
33.5262 14.0483 1.9955 255 40 40
33.5278 14.0447 1.9955 255 40 40
33.5295 14.0411 1.9955 255 40 40
33.5312 14.0375 1.9955 255 40 40
33.5328 14.0340 1.9955 255 40 40
33.5345 14.0304 1.9955 255 40 40
33.5362 14.0268 1.9955 255 40 40
33.5378 14.0232 1.9955 255 40 40
33.5395 14.0196 1.9955 255 40 40
33.5412 14.0160 1.9955 255 40 40
33.5428 14.0124 1.9955 255 40 40
33.5445 14.0088 1.9955 255 40 40
33.5462 14.0052 1.9955 255 40 40
33.5478 14.0016 1.9955 255 40 40
33.5495 13.9980 1.9955 255 40 40
33.5512 13.9944 1.9955 255 40 40
33.5528 13.9908 1.9955 255 40 40
33.5545 13.9873 1.9955 255 40 40
33.5562 13.9837 1.9955 255 40 40
33.5578 13.9801 1.9955 255 40 40
33.5595 13.9765 1.9955 255 40 40
33.5612 13.9729 1.9955 255 40 40
33.5628 13.9693 1.9955 255 40 40
33.5645 13.9657 1.9955 255 40 40
33.5662 13.9621 1.9955 255 40 40
33.5678 13.9585 1.9955 255 40 40
33.5695 13.9549 1.9955 255 40 40
33.5712 13.9513 1.9955 255 40 40
33.5728 13.9477 1.9955 255 40 40
33.5728 13.9477 1.9955 255 40 40
33.5769 13.9496 1.9955 255 40 40
33.5809 13.9515 1.9955 255 40 40
33.5849 13.9533 1.9955 255 40 40
33.5889 13.9552 1.9955 255 40 40
33.5929 13.9571 1.9955 255 40 40
33.5969 13.9589 1.9955 255 40 40
33.6010 13.9608 1.9955 255 40 40
33.6050 13.9627 1.9955 255 40 40
33.6090 13.9645 1.9955 255 40 40
33.6130 13.9664 1.9955 255 40 40
33.6170 13.9682 1.9955 255 40 40
33.6210 13.9701 1.9955 255 40 40
33.6251 13.9720 1.9955 255 40 40
33.6291 13.9738 1.9955 255 40 40
33.6331 13.9757 1.9955 255 40 40
33.6371 13.9776 1.9955 255 40 40
33.6411 13.9794 1.9955 255 40 40
33.6451 13.9813 1.9955 255 40 40
33.6492 13.9832 1.9955 255 40 40
33.6532 13.9850 1.9955 255 40 40
33.6572 13.9869 1.9955 255 40 40
33.6612 13.9888 1.9955 255 40 40
33.6652 13.9906 1.9955 255 40 40
33.6692 13.9925 1.9955 255 40 40
33.6733 13.9943 1.9955 255 40 40
33.6773 13.9962 1.9955 255 40 40
33.6813 13.9981 1.9955 255 40 40
33.6853 13.9999 1.9955 255 40 40
33.6893 14.0018 1.9955 255 40 40
33.6933 14.0037 1.9955 255 40 40
33.6973 14.0055 1.9955 255 40 40
33.7014 14.0074 1.9955 255 40 40
33.7054 14.0093 1.9955 255 40 40
33.7094 14.0111 1.9955 255 40 40
33.7134 14.0130 1.9955 255 40 40
33.7174 14.0149 1.9955 255 40 40
33.7214 14.0167 1.9955 255 40 40
33.7255 14.0186 1.9955 255 40 40
33.7295 14.0204 1.9955 255 40 40
33.7335 14.0223 1.9955 255 40 40
33.7375 14.0242 1.9955 255 40 40
33.7415 14.0260 1.9955 255 40 40
33.7455 14.0279 1.9955 255 40 40
33.7496 14.0298 1.9955 255 40 40
33.7536 14.0316 1.9955 255 40 40
33.7576 14.0335 1.9955 255 40 40
33.7616 14.0354 1.9955 255 40 40
33.7656 14.0372 1.9955 255 40 40
33.7696 14.0391 1.9955 255 40 40
33.7737 14.0409 1.9955 255 40 40
33.7777 14.0428 1.9955 255 40 40
33.7817 14.0447 1.9955 255 40 40
33.7857 14.0465 1.9955 255 40 40
33.7897 14.0484 1.9955 255 40 40
33.7937 14.0503 1.9955 255 40 40
33.7978 14.0521 1.9955 255 40 40
33.8018 14.0540 1.9955 255 40 40
33.8058 14.0559 1.9955 255 40 40
33.8098 14.0577 1.9955 255 40 40
33.8138 14.0596 1.9955 255 40 40
33.8178 14.0615 1.9955 255 40 40
33.8219 14.0633 1.9955 255 40 40
33.8259 14.0652 1.9955 255 40 40
33.8299 14.0670 1.9955 255 40 40
33.8339 14.0689 1.9955 255 40 40
33.8379 14.0708 1.9955 255 40 40
33.8419 14.0726 1.9955 255 40 40
33.8460 14.0745 1.9955 255 40 40
33.8500 14.0764 1.9955 255 40 40
33.8540 14.0782 1.9955 255 40 40
33.8580 14.0801 1.9955 255 40 40
33.8620 14.0820 1.9955 255 40 40
33.8660 14.0838 1.9955 255 40 40
33.8701 14.0857 1.9955 255 40 40
33.8741 14.0876 1.9955 255 40 40
33.8781 14.0894 1.9955 255 40 40
33.8821 14.0913 1.9955 255 40 40
33.8861 14.0931 1.9955 255 40 40
33.8901 14.0950 1.9955 255 40 40
33.8942 14.0969 1.9955 255 40 40
33.8982 14.0987 1.9955 255 40 40
33.9022 14.1006 1.9955 255 40 40
33.9062 14.1025 1.9955 255 40 40
33.9102 14.1043 1.9955 255 40 40
33.9142 14.1062 1.9955 255 40 40
33.9183 14.1081 1.9955 255 40 40
33.9223 14.1099 1.9955 255 40 40
33.9263 14.1118 1.9955 255 40 40
33.9303 14.1136 1.9955 255 40 40
33.9343 14.1155 1.9955 255 40 40
33.9383 14.1174 1.9955 255 40 40
33.9424 14.1192 1.9955 255 40 40
33.9464 14.1211 1.9955 255 40 40
33.9504 14.1230 1.9955 255 40 40
33.9544 14.1248 1.9955 255 40 40
33.9584 14.1267 1.9955 255 40 40
33.9624 14.1286 1.9955 255 40 40
33.9665 14.1304 1.9955 255 40 40
33.9705 14.1323 1.9955 255 40 40
33.9745 14.1342 1.9955 255 40 40
33.9785 14.1360 1.9955 255 40 40
33.9825 14.1379 1.9955 255 40 40
33.9865 14.1397 1.9955 255 40 40
33.9906 14.1416 1.9955 255 40 40
33.9946 14.1435 1.9955 255 40 40
33.9986 14.1453 1.9955 255 40 40
34.0026 14.1472 1.9955 255 40 40
34.0066 14.1491 1.9955 255 40 40
34.0106 14.1509 1.9955 255 40 40
34.0147 14.1528 1.9955 255 40 40
34.0187 14.1547 1.9955 255 40 40
34.0227 14.1565 1.9955 255 40 40
34.0267 14.1584 1.9955 255 40 40
34.0307 14.1602 1.9955 255 40 40
34.0347 14.1621 1.9955 255 40 40
34.0388 14.1640 1.9955 255 40 40
34.0428 14.1658 1.9955 255 40 40
34.0468 14.1677 1.9955 255 40 40
34.0508 14.1696 1.9955 255 40 40
34.0548 14.1714 1.9955 255 40 40
34.0588 14.1733 1.9955 255 40 40
34.0629 14.1752 1.9955 255 40 40
34.0669 14.1770 1.9955 255 40 40
34.0709 14.1789 1.9955 255 40 40
34.0749 14.1808 1.9955 255 40 40
34.0789 14.1826 1.9955 255 40 40
34.0829 14.1845 1.9955 255 40 40
34.0870 14.1863 1.9955 255 40 40
34.0910 14.1882 1.9955 255 40 40
34.0950 14.1901 1.9955 255 40 40
34.0990 14.1919 1.9955 255 40 40
34.1030 14.1938 1.9955 255 40 40
34.1070 14.1957 1.9955 255 40 40
34.1110 14.1975 1.9955 255 40 40
34.1151 14.1994 1.9955 255 40 40
34.1191 14.2013 1.9955 255 40 40
34.1231 14.2031 1.9955 255 40 40
34.1271 14.2050 1.9955 255 40 40
34.1311 14.2069 1.9955 255 40 40
34.1351 14.2087 1.9955 255 40 40
34.1392 14.2106 1.9955 255 40 40
34.1432 14.2124 1.9955 255 40 40
34.1472 14.2143 1.9955 255 40 40
34.1512 14.2162 1.9955 255 40 40
34.1552 14.2180 1.9955 255 40 40
34.1592 14.2199 1.9955 255 40 40
34.1633 14.2218 1.9955 255 40 40
34.1673 14.2236 1.9955 255 40 40
34.1713 14.2255 1.9955 255 40 40
34.1753 14.2274 1.9955 255 40 40
34.1793 14.2292 1.9955 255 40 40
34.1833 14.2311 1.9955 255 40 40
34.1874 14.2329 1.9955 255 40 40
34.1914 14.2348 1.9955 255 40 40
34.1954 14.2367 1.9955 255 40 40
34.1994 14.2385 1.9955 255 40 40
34.2034 14.2404 1.9955 255 40 40
34.2074 14.2423 1.9955 255 40 40
34.2115 14.2441 1.9955 255 40 40
34.2155 14.2460 1.9955 255 40 40
34.2195 14.2479 1.9955 255 40 40
34.2235 14.2497 1.9955 255 40 40
34.2275 14.2516 1.9955 255 40 40
34.2315 14.2535 1.9955 255 40 40
34.2356 14.2553 1.9955 255 40 40
34.2356 14.2553 1.9955 255 40 40
34.2339 14.2589 1.9955 255 40 40
34.2322 14.2625 1.9955 255 40 40
34.2306 14.2661 1.9955 255 40 40
34.2289 14.2697 1.9955 255 40 40
34.2272 14.2733 1.9955 255 40 40
34.2256 14.2769 1.9955 255 40 40
34.2239 14.2805 1.9955 255 40 40
34.2222 14.2841 1.9955 255 40 40
34.2206 14.2876 1.9955 255 40 40
34.2189 14.2912 1.9955 255 40 40
34.2172 14.2948 1.9955 255 40 40
34.2156 14.2984 1.9955 255 40 40
34.2139 14.3020 1.9955 255 40 40
34.2122 14.3056 1.9955 255 40 40
34.2106 14.3092 1.9955 255 40 40
34.2089 14.3128 1.9955 255 40 40
34.2072 14.3164 1.9955 255 40 40
34.2056 14.3200 1.9955 255 40 40
34.2039 14.3236 1.9955 255 40 40
34.2022 14.3272 1.9955 255 40 40
34.2006 14.3308 1.9955 255 40 40
34.1989 14.3343 1.9955 255 40 40
34.1972 14.3379 1.9955 255 40 40
34.1955 14.3415 1.9955 255 40 40
34.1939 14.3451 1.9955 255 40 40
34.1922 14.3487 1.9955 255 40 40
34.1905 14.3523 1.9955 255 40 40
34.1889 14.3559 1.9955 255 40 40
34.1872 14.3595 1.9955 255 40 40
34.1855 14.3631 1.9955 255 40 40
34.1839 14.3667 1.9955 255 40 40
34.1822 14.3703 1.9955 255 40 40
34.1805 14.3739 1.9955 255 40 40
34.1789 14.3774 1.9955 255 40 40
34.1772 14.3810 1.9955 255 40 40
34.1755 14.3846 1.9955 255 40 40
34.1739 14.3882 1.9955 255 40 40
34.1722 14.3918 1.9955 255 40 40
34.1705 14.3954 1.9955 255 40 40
34.1689 14.3990 1.9955 255 40 40
34.1672 14.4026 1.9955 255 40 40
34.1655 14.4062 1.9955 255 40 40
34.1639 14.4098 1.9955 255 40 40
34.1622 14.4134 1.9955 255 40 40
34.1605 14.4170 1.9955 255 40 40
34.1589 14.4206 1.9955 255 40 40
34.1572 14.4241 1.9955 255 40 40
34.1555 14.4277 1.9955 255 40 40
34.1539 14.4313 1.9955 255 40 40
34.1522 14.4349 1.9955 255 40 40
34.1505 14.4385 1.9955 255 40 40
34.1489 14.4421 1.9955 255 40 40
34.1472 14.4457 1.9955 255 40 40
34.1455 14.4493 1.9955 255 40 40
34.1439 14.4529 1.9955 255 40 40
34.1422 14.4565 1.9955 255 40 40
34.1405 14.4601 1.9955 255 40 40
34.1389 14.4637 1.9955 255 40 40
34.1372 14.4673 1.9955 255 40 40
34.1355 14.4708 1.9955 255 40 40
34.1339 14.4744 1.9955 255 40 40
34.1322 14.4780 1.9955 255 40 40
34.1305 14.4816 1.9955 255 40 40
34.1289 14.4852 1.9955 255 40 40
34.1272 14.4888 1.9955 255 40 40
34.1255 14.4924 1.9955 255 40 40
34.1239 14.4960 1.9955 255 40 40
34.1222 14.4996 1.9955 255 40 40
34.1205 14.5032 1.9955 255 40 40
34.1189 14.5068 1.9955 255 40 40
34.1172 14.5104 1.9955 255 40 40
34.1155 14.5140 1.9955 255 40 40
34.1139 14.5175 1.9955 255 40 40
34.1122 14.5211 1.9955 255 40 40
34.1105 14.5247 1.9955 255 40 40
34.1089 14.5283 1.9955 255 40 40
34.1072 14.5319 1.9955 255 40 40
34.1055 14.5355 1.9955 255 40 40
34.1039 14.5391 1.9955 255 40 40
34.1022 14.5427 1.9955 255 40 40
34.1005 14.5463 1.9955 255 40 40
34.0989 14.5499 1.9955 255 40 40
34.0972 14.5535 1.9955 255 40 40
34.0955 14.5571 1.9955 255 40 40
34.0939 14.5606 1.9955 255 40 40
34.0922 14.5642 1.9955 255 40 40
34.0905 14.5678 1.9955 255 40 40
34.0889 14.5714 1.9955 255 40 40
34.0872 14.5750 1.9955 255 40 40
34.0855 14.5786 1.9955 255 40 40
34.0839 14.5822 1.9955 255 40 40
34.0822 14.5858 1.9955 255 40 40
34.0805 14.5894 1.9955 255 40 40
34.0789 14.5930 1.9955 255 40 40
34.0772 14.5966 1.9955 255 40 40
34.0755 14.6002 1.9955 255 40 40
34.0739 14.6038 1.9955 255 40 40
34.0722 14.6073 1.9955 255 40 40
34.0705 14.6109 1.9955 255 40 40
34.0689 14.6145 1.9955 255 40 40
34.0672 14.6181 1.9955 255 40 40
34.0655 14.6217 1.9955 255 40 40
34.0639 14.6253 1.9955 255 40 40
34.0622 14.6289 1.9955 255 40 40
34.0605 14.6325 1.9955 255 40 40
34.0588 14.6361 1.9955 255 40 40
34.0572 14.6397 1.9955 255 40 40
34.0555 14.6433 1.9955 255 40 40
34.0538 14.6469 1.9955 255 40 40
34.0522 14.6505 1.9955 255 40 40
34.0505 14.6540 1.9955 255 40 40
34.0488 14.6576 1.9955 255 40 40
34.0472 14.6612 1.9955 255 40 40
34.0455 14.6648 1.9955 255 40 40
34.0438 14.6684 1.9955 255 40 40
34.0422 14.6720 1.9955 255 40 40
34.0405 14.6756 1.9955 255 40 40
34.0388 14.6792 1.9955 255 40 40
34.0372 14.6828 1.9955 255 40 40
34.0355 14.6864 1.9955 255 40 40
34.0338 14.6900 1.9955 255 40 40
34.0322 14.6936 1.9955 255 40 40
34.0305 14.6971 1.9955 255 40 40
34.0288 14.7007 1.9955 255 40 40
34.0272 14.7043 1.9955 255 40 40
34.0255 14.7079 1.9955 255 40 40
34.0238 14.7115 1.9955 255 40 40
34.0222 14.7151 1.9955 255 40 40
34.0205 14.7187 1.9955 255 40 40
34.0188 14.7223 1.9955 255 40 40
34.0172 14.7259 1.9955 255 40 40
34.0155 14.7295 1.9955 255 40 40
34.0138 14.7331 1.9955 255 40 40
34.0122 14.7367 1.9955 255 40 40
34.0105 14.7403 1.9955 255 40 40
34.0088 14.7438 1.9955 255 40 40
34.0072 14.7474 1.9955 255 40 40
34.0055 14.7510 1.9955 255 40 40
34.0038 14.7546 1.9955 255 40 40
34.0022 14.7582 1.9955 255 40 40
34.0005 14.7618 1.9955 255 40 40
33.9988 14.7654 1.9955 255 40 40
33.9972 14.7690 1.9955 255 40 40
33.9955 14.7726 1.9955 255 40 40
33.9938 14.7762 1.9955 255 40 40
33.9922 14.7798 1.9955 255 40 40
33.9905 14.7834 1.9955 255 40 40
33.9888 14.7870 1.9955 255 40 40
33.9872 14.7905 1.9955 255 40 40
33.9855 14.7941 1.9955 255 40 40
33.9838 14.7977 1.9955 255 40 40
33.9822 14.8013 1.9955 255 40 40
33.9805 14.8049 1.9955 255 40 40
33.9788 14.8085 1.9955 255 40 40
33.9772 14.8121 1.9955 255 40 40
33.9755 14.8157 1.9955 255 40 40
33.9738 14.8193 1.9955 255 40 40
33.9722 14.8229 1.9955 255 40 40
33.9705 14.8265 1.9955 255 40 40
33.9688 14.8301 1.9955 255 40 40
33.9672 14.8337 1.9955 255 40 40
33.9655 14.8372 1.9955 255 40 40
33.9638 14.8408 1.9955 255 40 40
33.9622 14.8444 1.9955 255 40 40
33.9605 14.8480 1.9955 255 40 40
33.9605 14.8480 1.9955 255 40 40
33.9565 14.8462 1.9955 255 40 40
33.9525 14.8443 1.9955 255 40 40
33.9484 14.8424 1.9955 255 40 40
33.9444 14.8406 1.9955 255 40 40
33.9404 14.8387 1.9955 255 40 40
33.9364 14.8368 1.9955 255 40 40
33.9324 14.8350 1.9955 255 40 40
33.9284 14.8331 1.9955 255 40 40
33.9243 14.8312 1.9955 255 40 40
33.9203 14.8294 1.9955 255 40 40
33.9163 14.8275 1.9955 255 40 40
33.9123 14.8256 1.9955 255 40 40
33.9083 14.8238 1.9955 255 40 40
33.9043 14.8219 1.9955 255 40 40
33.9002 14.8201 1.9955 255 40 40
33.8962 14.8182 1.9955 255 40 40
33.8922 14.8163 1.9955 255 40 40
33.8882 14.8145 1.9955 255 40 40
33.8842 14.8126 1.9955 255 40 40
33.8802 14.8107 1.9955 255 40 40
33.8761 14.8089 1.9955 255 40 40
33.8721 14.8070 1.9955 255 40 40
33.8681 14.8051 1.9955 255 40 40
33.8641 14.8033 1.9955 255 40 40
33.8601 14.8014 1.9955 255 40 40
33.8561 14.7996 1.9955 255 40 40
33.8520 14.7977 1.9955 255 40 40
33.8480 14.7958 1.9955 255 40 40
33.8440 14.7940 1.9955 255 40 40
33.8400 14.7921 1.9955 255 40 40
33.8360 14.7902 1.9955 255 40 40
33.8320 14.7884 1.9955 255 40 40
33.8279 14.7865 1.9955 255 40 40
33.8239 14.7846 1.9955 255 40 40
33.8199 14.7828 1.9955 255 40 40
33.8159 14.7809 1.9955 255 40 40
33.8119 14.7790 1.9955 255 40 40
33.8079 14.7772 1.9955 255 40 40
33.8038 14.7753 1.9955 255 40 40
33.7998 14.7735 1.9955 255 40 40
33.7958 14.7716 1.9955 255 40 40
33.7918 14.7697 1.9955 255 40 40
33.7878 14.7679 1.9955 255 40 40
33.7838 14.7660 1.9955 255 40 40
33.7797 14.7641 1.9955 255 40 40
33.7757 14.7623 1.9955 255 40 40
33.7717 14.7604 1.9955 255 40 40
33.7677 14.7585 1.9955 255 40 40
33.7637 14.7567 1.9955 255 40 40
33.7597 14.7548 1.9955 255 40 40
33.7556 14.7530 1.9955 255 40 40
33.7516 14.7511 1.9955 255 40 40
33.7476 14.7492 1.9955 255 40 40
33.7436 14.7474 1.9955 255 40 40
33.7396 14.7455 1.9955 255 40 40
33.7356 14.7436 1.9955 255 40 40
33.7315 14.7418 1.9955 255 40 40
33.7275 14.7399 1.9955 255 40 40
33.7235 14.7380 1.9955 255 40 40
33.7195 14.7362 1.9955 255 40 40
33.7155 14.7343 1.9955 255 40 40
33.7115 14.7324 1.9955 255 40 40
33.7074 14.7306 1.9955 255 40 40
33.7034 14.7287 1.9955 255 40 40
33.6994 14.7269 1.9955 255 40 40
33.6954 14.7250 1.9955 255 40 40
33.6914 14.7231 1.9955 255 40 40
33.6874 14.7213 1.9955 255 40 40
33.6833 14.7194 1.9955 255 40 40
33.6793 14.7175 1.9955 255 40 40
33.6753 14.7157 1.9955 255 40 40
33.6713 14.7138 1.9955 255 40 40
33.6673 14.7119 1.9955 255 40 40
33.6633 14.7101 1.9955 255 40 40
33.6592 14.7082 1.9955 255 40 40
33.6552 14.7063 1.9955 255 40 40
33.6512 14.7045 1.9955 255 40 40
33.6472 14.7026 1.9955 255 40 40
33.6432 14.7008 1.9955 255 40 40
33.6392 14.6989 1.9955 255 40 40
33.6352 14.6970 1.9955 255 40 40
33.6311 14.6952 1.9955 255 40 40
33.6271 14.6933 1.9955 255 40 40
33.6231 14.6914 1.9955 255 40 40
33.6191 14.6896 1.9955 255 40 40
33.6151 14.6877 1.9955 255 40 40
33.6110 14.6858 1.9955 255 40 40
33.6070 14.6840 1.9955 255 40 40
33.6030 14.6821 1.9955 255 40 40
33.5990 14.6803 1.9955 255 40 40
33.5950 14.6784 1.9955 255 40 40
33.5910 14.6765 1.9955 255 40 40
33.5870 14.6747 1.9955 255 40 40
33.5829 14.6728 1.9955 255 40 40
33.5789 14.6709 1.9955 255 40 40
33.5749 14.6691 1.9955 255 40 40
33.5709 14.6672 1.9955 255 40 40
33.5669 14.6653 1.9955 255 40 40
33.5629 14.6635 1.9955 255 40 40
33.5588 14.6616 1.9955 255 40 40
33.5548 14.6597 1.9955 255 40 40
33.5508 14.6579 1.9955 255 40 40
33.5468 14.6560 1.9955 255 40 40
33.5428 14.6542 1.9955 255 40 40
33.5388 14.6523 1.9955 255 40 40
33.5347 14.6504 1.9955 255 40 40
33.5307 14.6486 1.9955 255 40 40
33.5267 14.6467 1.9955 255 40 40
33.5227 14.6448 1.9955 255 40 40
33.5187 14.6430 1.9955 255 40 40
33.5147 14.6411 1.9955 255 40 40
33.5106 14.6392 1.9955 255 40 40
33.5066 14.6374 1.9955 255 40 40
33.5026 14.6355 1.9955 255 40 40
33.4986 14.6336 1.9955 255 40 40
33.4946 14.6318 1.9955 255 40 40
33.4906 14.6299 1.9955 255 40 40
33.4865 14.6281 1.9955 255 40 40
33.4825 14.6262 1.9955 255 40 40
33.4785 14.6243 1.9955 255 40 40
33.4745 14.6225 1.9955 255 40 40
33.4705 14.6206 1.9955 255 40 40
33.4665 14.6187 1.9955 255 40 40
33.4624 14.6169 1.9955 255 40 40
33.4584 14.6150 1.9955 255 40 40
33.4544 14.6131 1.9955 255 40 40
33.4504 14.6113 1.9955 255 40 40
33.4464 14.6094 1.9955 255 40 40
33.4424 14.6076 1.9955 255 40 40
33.4383 14.6057 1.9955 255 40 40
33.4343 14.6038 1.9955 255 40 40
33.4303 14.6020 1.9955 255 40 40
33.4263 14.6001 1.9955 255 40 40
33.4223 14.5982 1.9955 255 40 40
33.4183 14.5964 1.9955 255 40 40
33.4142 14.5945 1.9955 255 40 40
33.4102 14.5926 1.9955 255 40 40
33.4062 14.5908 1.9955 255 40 40
33.4022 14.5889 1.9955 255 40 40
33.3982 14.5870 1.9955 255 40 40
33.3942 14.5852 1.9955 255 40 40
33.3901 14.5833 1.9955 255 40 40
33.3861 14.5815 1.9955 255 40 40
33.3821 14.5796 1.9955 255 40 40
33.3781 14.5777 1.9955 255 40 40
33.3741 14.5759 1.9955 255 40 40
33.3701 14.5740 1.9955 255 40 40
33.3660 14.5721 1.9955 255 40 40
33.3620 14.5703 1.9955 255 40 40
33.3580 14.5684 1.9955 255 40 40
33.3540 14.5665 1.9955 255 40 40
33.3500 14.5647 1.9955 255 40 40
33.3460 14.5628 1.9955 255 40 40
33.3419 14.5610 1.9955 255 40 40
33.3379 14.5591 1.9955 255 40 40
33.3339 14.5572 1.9955 255 40 40
33.3299 14.5554 1.9955 255 40 40
33.3259 14.5535 1.9955 255 40 40
33.3219 14.5516 1.9955 255 40 40
33.3178 14.5498 1.9955 255 40 40
33.3138 14.5479 1.9955 255 40 40
33.3098 14.5460 1.9955 255 40 40
33.3058 14.5442 1.9955 255 40 40
33.3018 14.5423 1.9955 255 40 40
33.2978 14.5404 1.9955 255 40 40
33.2978 14.5404 0.2334 255 40 40
33.2978 14.5404 0.2441 255 40 40
33.2978 14.5404 0.2548 255 40 40
33.2978 14.5404 0.2655 255 40 40
33.2978 14.5404 0.2761 255 40 40
33.2978 14.5404 0.2868 255 40 40
33.2978 14.5404 0.2975 255 40 40
33.2978 14.5404 0.3082 255 40 40
33.2978 14.5404 0.3189 255 40 40
33.2978 14.5404 0.3295 255 40 40
33.2978 14.5404 0.3402 255 40 40
33.2978 14.5404 0.3509 255 40 40
33.2978 14.5404 0.3616 255 40 40
33.2978 14.5404 0.3722 255 40 40
33.2978 14.5404 0.3829 255 40 40
33.2978 14.5404 0.3936 255 40 40
33.2978 14.5404 0.4043 255 40 40
33.2978 14.5404 0.4150 255 40 40
33.2978 14.5404 0.4256 255 40 40
33.2978 14.5404 0.4363 255 40 40
33.2978 14.5404 0.4470 255 40 40
33.2978 14.5404 0.4577 255 40 40
33.2978 14.5404 0.4684 255 40 40
33.2978 14.5404 0.4790 255 40 40
33.2978 14.5404 0.4897 255 40 40
33.2978 14.5404 0.5004 255 40 40
33.2978 14.5404 0.5111 255 40 40
33.2978 14.5404 0.5218 255 40 40
33.2978 14.5404 0.5324 255 40 40
33.2978 14.5404 0.5431 255 40 40
33.2978 14.5404 0.5538 255 40 40
33.2978 14.5404 0.5645 255 40 40
33.2978 14.5404 0.5752 255 40 40
33.2978 14.5404 0.5858 255 40 40
33.2978 14.5404 0.5965 255 40 40
33.2978 14.5404 0.6072 255 40 40
33.2978 14.5404 0.6179 255 40 40
33.2978 14.5404 0.6285 255 40 40
33.2978 14.5404 0.6392 255 40 40
33.2978 14.5404 0.6499 255 40 40
33.2978 14.5404 0.6606 255 40 40
33.2978 14.5404 0.6713 255 40 40
33.2978 14.5404 0.6819 255 40 40
33.2978 14.5404 0.6926 255 40 40
33.2978 14.5404 0.7033 255 40 40
33.2978 14.5404 0.7140 255 40 40
33.2978 14.5404 0.7247 255 40 40
33.2978 14.5404 0.7353 255 40 40
33.2978 14.5404 0.7460 255 40 40
33.2978 14.5404 0.7567 255 40 40
33.2978 14.5404 0.7674 255 40 40
33.2978 14.5404 0.7781 255 40 40
33.2978 14.5404 0.7887 255 40 40
33.2978 14.5404 0.7994 255 40 40
33.2978 14.5404 0.8101 255 40 40
33.2978 14.5404 0.8208 255 40 40
33.2978 14.5404 0.8315 255 40 40
33.2978 14.5404 0.8421 255 40 40
33.2978 14.5404 0.8528 255 40 40
33.2978 14.5404 0.8635 255 40 40
33.2978 14.5404 0.8742 255 40 40
33.2978 14.5404 0.8849 255 40 40
33.2978 14.5404 0.8955 255 40 40
33.2978 14.5404 0.9062 255 40 40
33.2978 14.5404 0.9169 255 40 40
33.2978 14.5404 0.9276 255 40 40
33.2978 14.5404 0.9382 255 40 40
33.2978 14.5404 0.9489 255 40 40
33.2978 14.5404 0.9596 255 40 40
33.2978 14.5404 0.9703 255 40 40
33.2978 14.5404 0.9810 255 40 40
33.2978 14.5404 0.9916 255 40 40
33.2978 14.5404 1.0023 255 40 40
33.2978 14.5404 1.0130 255 40 40
33.2978 14.5404 1.0237 255 40 40
33.2978 14.5404 1.0344 255 40 40
33.2978 14.5404 1.0450 255 40 40
33.2978 14.5404 1.0557 255 40 40
33.2978 14.5404 1.0664 255 40 40
33.2978 14.5404 1.0771 255 40 40
33.2978 14.5404 1.0878 255 40 40
33.2978 14.5404 1.0984 255 40 40
33.2978 14.5404 1.1091 255 40 40
33.2978 14.5404 1.1198 255 40 40
33.2978 14.5404 1.1305 255 40 40
33.2978 14.5404 1.1412 255 40 40
33.2978 14.5404 1.1518 255 40 40
33.2978 14.5404 1.1625 255 40 40
33.2978 14.5404 1.1732 255 40 40
33.2978 14.5404 1.1839 255 40 40
33.2978 14.5404 1.1945 255 40 40
33.2978 14.5404 1.2052 255 40 40
33.2978 14.5404 1.2159 255 40 40
33.2978 14.5404 1.2266 255 40 40
33.2978 14.5404 1.2373 255 40 40
33.2978 14.5404 1.2479 255 40 40
33.2978 14.5404 1.2586 255 40 40
33.2978 14.5404 1.2693 255 40 40
33.2978 14.5404 1.2800 255 40 40
33.2978 14.5404 1.2907 255 40 40
33.2978 14.5404 1.3013 255 40 40
33.2978 14.5404 1.3120 255 40 40
33.2978 14.5404 1.3227 255 40 40
33.2978 14.5404 1.3334 255 40 40
33.2978 14.5404 1.3441 255 40 40
33.2978 14.5404 1.3547 255 40 40
33.2978 14.5404 1.3654 255 40 40
33.2978 14.5404 1.3761 255 40 40
33.2978 14.5404 1.3868 255 40 40
33.2978 14.5404 1.3975 255 40 40
33.2978 14.5404 1.4081 255 40 40
33.2978 14.5404 1.4188 255 40 40
33.2978 14.5404 1.4295 255 40 40
33.2978 14.5404 1.4402 255 40 40
33.2978 14.5404 1.4508 255 40 40
