ply
format ascii 1.0
element vertex 1449
property float x
property float y
property float z
property uchar red
property uchar green
property uchar blue
end_header
34.0099 14.2897 0.2768 255 40 40
34.0100 14.2930 0.2768 255 40 40
34.0100 14.2963 0.2768 255 40 40
34.0101 14.2996 0.2768 255 40 40
34.0102 14.3029 0.2768 255 40 40
34.0103 14.3062 0.2768 255 40 40
34.0104 14.3095 0.2768 255 40 40
34.0105 14.3127 0.2768 255 40 40
34.0106 14.3160 0.2768 255 40 40
34.0107 14.3193 0.2768 255 40 40
34.0107 14.3226 0.2768 255 40 40
34.0108 14.3259 0.2768 255 40 40
34.0109 14.3292 0.2768 255 40 40
34.0110 14.3325 0.2768 255 40 40
34.0111 14.3358 0.2768 255 40 40
34.0112 14.3391 0.2768 255 40 40
34.0113 14.3423 0.2768 255 40 40
34.0114 14.3456 0.2768 255 40 40
34.0115 14.3489 0.2768 255 40 40
34.0115 14.3522 0.2768 255 40 40
34.0116 14.3555 0.2768 255 40 40
34.0117 14.3588 0.2768 255 40 40
34.0118 14.3621 0.2768 255 40 40
34.0119 14.3654 0.2768 255 40 40
34.0120 14.3687 0.2768 255 40 40
34.0121 14.3720 0.2768 255 40 40
34.0122 14.3752 0.2768 255 40 40
34.0122 14.3785 0.2768 255 40 40
34.0123 14.3818 0.2768 255 40 40
34.0124 14.3851 0.2768 255 40 40
34.0125 14.3884 0.2768 255 40 40
34.0126 14.3917 0.2768 255 40 40
34.0127 14.3950 0.2768 255 40 40
34.0128 14.3983 0.2768 255 40 40
34.0129 14.4016 0.2768 255 40 40
34.0129 14.4049 0.2768 255 40 40
34.0130 14.4081 0.2768 255 40 40
34.0131 14.4114 0.2768 255 40 40
34.0132 14.4147 0.2768 255 40 40
34.0133 14.4180 0.2768 255 40 40
34.0134 14.4213 0.2768 255 40 40
34.0135 14.4246 0.2768 255 40 40
34.0136 14.4279 0.2768 255 40 40
34.0137 14.4312 0.2768 255 40 40
34.0137 14.4345 0.2768 255 40 40
34.0138 14.4378 0.2768 255 40 40
34.0139 14.4410 0.2768 255 40 40
34.0140 14.4443 0.2768 255 40 40
34.0141 14.4476 0.2768 255 40 40
34.0142 14.4509 0.2768 255 40 40
34.0143 14.4542 0.2768 255 40 40
34.0144 14.4575 0.2768 255 40 40
34.0144 14.4608 0.2768 255 40 40
34.0145 14.4641 0.2768 255 40 40
34.0146 14.4674 0.2768 255 40 40
34.0147 14.4707 0.2768 255 40 40
34.0148 14.4739 0.2768 255 40 40
34.0149 14.4772 0.2768 255 40 40
34.0150 14.4805 0.2768 255 40 40
34.0151 14.4838 0.2768 255 40 40
34.0151 14.4871 0.2768 255 40 40
34.0152 14.4904 0.2768 255 40 40
34.0153 14.4937 0.2768 255 40 40
34.0154 14.4970 0.2768 255 40 40
34.0155 14.5003 0.2768 255 40 40
34.0156 14.5036 0.2768 255 40 40
34.0157 14.5068 0.2768 255 40 40
34.0158 14.5101 0.2768 255 40 40
34.0159 14.5134 0.2768 255 40 40
34.0159 14.5167 0.2768 255 40 40
34.0160 14.5200 0.2768 255 40 40
34.0161 14.5233 0.2768 255 40 40
34.0162 14.5266 0.2768 255 40 40
34.0163 14.5299 0.2768 255 40 40
34.0164 14.5332 0.2768 255 40 40
34.0165 14.5365 0.2768 255 40 40
34.0166 14.5397 0.2768 255 40 40
34.0166 14.5430 0.2768 255 40 40
34.0167 14.5463 0.2768 255 40 40
34.0168 14.5496 0.2768 255 40 40
34.0169 14.5529 0.2768 255 40 40
34.0170 14.5562 0.2768 255 40 40
34.0171 14.5595 0.2768 255 40 40
34.0172 14.5628 0.2768 255 40 40
34.0173 14.5661 0.2768 255 40 40
34.0173 14.5694 0.2768 255 40 40
34.0174 14.5726 0.2768 255 40 40
34.0175 14.5759 0.2768 255 40 40
34.0176 14.5792 0.2768 255 40 40
34.0177 14.5825 0.2768 255 40 40
34.0178 14.5858 0.2768 255 40 40
34.0179 14.5891 0.2768 255 40 40
34.0180 14.5924 0.2768 255 40 40
34.0181 14.5957 0.2768 255 40 40
34.0181 14.5990 0.2768 255 40 40
34.0182 14.6023 0.2768 255 40 40
34.0183 14.6055 0.2768 255 40 40
34.0184 14.6088 0.2768 255 40 40
34.0185 14.6121 0.2768 255 40 40
34.0186 14.6154 0.2768 255 40 40
34.0187 14.6187 0.2768 255 40 40
34.0188 14.6220 0.2768 255 40 40
34.0188 14.6253 0.2768 255 40 40
34.0189 14.6286 0.2768 255 40 40
34.0190 14.6319 0.2768 255 40 40
34.0191 14.6351 0.2768 255 40 40
34.0192 14.6384 0.2768 255 40 40
34.0193 14.6417 0.2768 255 40 40
34.0194 14.6450 0.2768 255 40 40
34.0195 14.6483 0.2768 255 40 40
34.0195 14.6516 0.2768 255 40 40
34.0196 14.6549 0.2768 255 40 40
34.0197 14.6582 0.2768 255 40 40
34.0198 14.6615 0.2768 255 40 40
34.0199 14.6648 0.2768 255 40 40
34.0200 14.6680 0.2768 255 40 40
34.0201 14.6713 0.2768 255 40 40
34.0202 14.6746 0.2768 255 40 40
34.0202 14.6779 0.2768 255 40 40
34.0202 14.6779 0.2768 255 40 40
34.0174 14.6780 0.2768 255 40 40
34.0146 14.6781 0.2768 255 40 40
34.0117 14.6781 0.2768 255 40 40
34.0089 14.6782 0.2768 255 40 40
34.0061 14.6783 0.2768 255 40 40
34.0032 14.6784 0.2768 255 40 40
34.0004 14.6784 0.2768 255 40 40
33.9976 14.6785 0.2768 255 40 40
33.9947 14.6786 0.2768 255 40 40
33.9919 14.6787 0.2768 255 40 40
33.9891 14.6788 0.2768 255 40 40
33.9862 14.6788 0.2768 255 40 40
33.9834 14.6789 0.2768 255 40 40
33.9805 14.6790 0.2768 255 40 40
33.9777 14.6791 0.2768 255 40 40
33.9749 14.6791 0.2768 255 40 40
33.9720 14.6792 0.2768 255 40 40
33.9692 14.6793 0.2768 255 40 40
33.9664 14.6794 0.2768 255 40 40
33.9635 14.6794 0.2768 255 40 40
33.9607 14.6795 0.2768 255 40 40
33.9579 14.6796 0.2768 255 40 40
33.9550 14.6797 0.2768 255 40 40
33.9522 14.6797 0.2768 255 40 40
33.9493 14.6798 0.2768 255 40 40
33.9465 14.6799 0.2768 255 40 40
33.9437 14.6800 0.2768 255 40 40
33.9408 14.6800 0.2768 255 40 40
33.9380 14.6801 0.2768 255 40 40
33.9352 14.6802 0.2768 255 40 40
33.9323 14.6803 0.2768 255 40 40
33.9295 14.6803 0.2768 255 40 40
33.9267 14.6804 0.2768 255 40 40
33.9238 14.6805 0.2768 255 40 40
33.9210 14.6806 0.2768 255 40 40
33.9181 14.6806 0.2768 255 40 40
33.9153 14.6807 0.2768 255 40 40
33.9125 14.6808 0.2768 255 40 40
33.9096 14.6809 0.2768 255 40 40
33.9068 14.6810 0.2768 255 40 40
33.9040 14.6810 0.2768 255 40 40
33.9011 14.6811 0.2768 255 40 40
33.8983 14.6812 0.2768 255 40 40
33.8955 14.6813 0.2768 255 40 40
33.8926 14.6813 0.2768 255 40 40
33.8898 14.6814 0.2768 255 40 40
33.8869 14.6815 0.2768 255 40 40
33.8841 14.6816 0.2768 255 40 40
33.8813 14.6816 0.2768 255 40 40
33.8784 14.6817 0.2768 255 40 40
33.8756 14.6818 0.2768 255 40 40
33.8728 14.6819 0.2768 255 40 40
33.8699 14.6819 0.2768 255 40 40
33.8671 14.6820 0.2768 255 40 40
33.8643 14.6821 0.2768 255 40 40
33.8614 14.6822 0.2768 255 40 40
33.8586 14.6822 0.2768 255 40 40
33.8558 14.6823 0.2768 255 40 40
33.8529 14.6824 0.2768 255 40 40
33.8501 14.6825 0.2768 255 40 40
33.8472 14.6825 0.2768 255 40 40
33.8444 14.6826 0.2768 255 40 40
33.8416 14.6827 0.2768 255 40 40
33.8387 14.6828 0.2768 255 40 40
33.8359 14.6828 0.2768 255 40 40
33.8331 14.6829 0.2768 255 40 40
33.8302 14.6830 0.2768 255 40 40
33.8274 14.6831 0.2768 255 40 40
33.8246 14.6831 0.2768 255 40 40
33.8217 14.6832 0.2768 255 40 40
33.8189 14.6833 0.2768 255 40 40
33.8160 14.6834 0.2768 255 40 40
33.8132 14.6835 0.2768 255 40 40
33.8104 14.6835 0.2768 255 40 40
33.8075 14.6836 0.2768 255 40 40
33.8047 14.6837 0.2768 255 40 40
33.8019 14.6838 0.2768 255 40 40
33.7990 14.6838 0.2768 255 40 40
33.7962 14.6839 0.2768 255 40 40
33.7934 14.6840 0.2768 255 40 40
33.7905 14.6841 0.2768 255 40 40
33.7877 14.6841 0.2768 255 40 40
33.7848 14.6842 0.2768 255 40 40
33.7820 14.6843 0.2768 255 40 40
33.7792 14.6844 0.2768 255 40 40
33.7763 14.6844 0.2768 255 40 40
33.7735 14.6845 0.2768 255 40 40
33.7707 14.6846 0.2768 255 40 40
33.7678 14.6847 0.2768 255 40 40
33.7650 14.6847 0.2768 255 40 40
33.7622 14.6848 0.2768 255 40 40
33.7593 14.6849 0.2768 255 40 40
33.7565 14.6850 0.2768 255 40 40
33.7537 14.6850 0.2768 255 40 40
33.7508 14.6851 0.2768 255 40 40
33.7480 14.6852 0.2768 255 40 40
33.7451 14.6853 0.2768 255 40 40
33.7423 14.6853 0.2768 255 40 40
33.7395 14.6854 0.2768 255 40 40
33.7366 14.6855 0.2768 255 40 40
33.7338 14.6856 0.2768 255 40 40
33.7310 14.6856 0.2768 255 40 40
33.7281 14.6857 0.2768 255 40 40
33.7253 14.6858 0.2768 255 40 40
33.7225 14.6859 0.2768 255 40 40
33.7196 14.6860 0.2768 255 40 40
33.7168 14.6860 0.2768 255 40 40
33.7139 14.6861 0.2768 255 40 40
33.7111 14.6862 0.2768 255 40 40
33.7083 14.6863 0.2768 255 40 40
33.7054 14.6863 0.2768 255 40 40
33.7026 14.6864 0.2768 255 40 40
33.6998 14.6865 0.2768 255 40 40
33.6969 14.6866 0.2768 255 40 40
33.6941 14.6866 0.2768 255 40 40
33.6913 14.6867 0.2768 255 40 40
33.6884 14.6868 0.2768 255 40 40
33.6856 14.6869 0.2768 255 40 40
33.6827 14.6869 0.2768 255 40 40
33.6799 14.6870 0.2768 255 40 40
33.6771 14.6871 0.2768 255 40 40
33.6742 14.6872 0.2768 255 40 40
33.6714 14.6872 0.2768 255 40 40
33.6686 14.6873 0.2768 255 40 40
33.6657 14.6874 0.2768 255 40 40
33.6629 14.6875 0.2768 255 40 40
33.6601 14.6875 0.2768 255 40 40
33.6572 14.6876 0.2768 255 40 40
33.6544 14.6877 0.2768 255 40 40
33.6516 14.6878 0.2768 255 40 40
33.6487 14.6878 0.2768 255 40 40
33.6459 14.6879 0.2768 255 40 40
33.6430 14.6880 0.2768 255 40 40
33.6402 14.6881 0.2768 255 40 40
33.6374 14.6882 0.2768 255 40 40
33.6345 14.6882 0.2768 255 40 40
33.6317 14.6883 0.2768 255 40 40
33.6289 14.6884 0.2768 255 40 40
33.6260 14.6885 0.2768 255 40 40
33.6232 14.6885 0.2768 255 40 40
33.6203 14.6886 0.2768 255 40 40
33.6175 14.6887 0.2768 255 40 40
33.6147 14.6888 0.2768 255 40 40
33.6118 14.6888 0.2768 255 40 40
33.6090 14.6889 0.2768 255 40 40
33.6062 14.6890 0.2768 255 40 40
33.6033 14.6891 0.2768 255 40 40
33.6005 14.6891 0.2768 255 40 40
33.5977 14.6892 0.2768 255 40 40
33.5948 14.6893 0.2768 255 40 40
33.5920 14.6894 0.2768 255 40 40
33.5892 14.6894 0.2768 255 40 40
33.5863 14.6895 0.2768 255 40 40
33.5835 14.6896 0.2768 255 40 40
33.5806 14.6897 0.2768 255 40 40
33.5778 14.6897 0.2768 255 40 40
33.5750 14.6898 0.2768 255 40 40
33.5721 14.6899 0.2768 255 40 40
33.5693 14.6900 0.2768 255 40 40
33.5665 14.6900 0.2768 255 40 40
33.5636 14.6901 0.2768 255 40 40
33.5608 14.6902 0.2768 255 40 40
33.5580 14.6903 0.2768 255 40 40
33.5551 14.6903 0.2768 255 40 40
33.5523 14.6904 0.2768 255 40 40
33.5523 14.6904 0.2768 255 40 40
33.5522 14.6871 0.2768 255 40 40
33.5521 14.6838 0.2768 255 40 40
33.5520 14.6806 0.2768 255 40 40
33.5519 14.6773 0.2768 255 40 40
33.5518 14.6740 0.2768 255 40 40
33.5518 14.6707 0.2768 255 40 40
33.5517 14.6674 0.2768 255 40 40
33.5516 14.6641 0.2768 255 40 40
33.5515 14.6608 0.2768 255 40 40
33.5514 14.6575 0.2768 255 40 40
33.5513 14.6542 0.2768 255 40 40
33.5512 14.6509 0.2768 255 40 40
33.5511 14.6477 0.2768 255 40 40
33.5511 14.6444 0.2768 255 40 40
33.5510 14.6411 0.2768 255 40 40
33.5509 14.6378 0.2768 255 40 40
33.5508 14.6345 0.2768 255 40 40
33.5507 14.6312 0.2768 255 40 40
33.5506 14.6279 0.2768 255 40 40
33.5505 14.6246 0.2768 255 40 40
33.5504 14.6213 0.2768 255 40 40
33.5504 14.6180 0.2768 255 40 40
33.5503 14.6148 0.2768 255 40 40
33.5502 14.6115 0.2768 255 40 40
33.5501 14.6082 0.2768 255 40 40
33.5500 14.6049 0.2768 255 40 40
33.5499 14.6016 0.2768 255 40 40
33.5498 14.5983 0.2768 255 40 40
33.5497 14.5950 0.2768 255 40 40
33.5496 14.5917 0.2768 255 40 40
33.5496 14.5884 0.2768 255 40 40
33.5495 14.5851 0.2768 255 40 40
33.5494 14.5819 0.2768 255 40 40
33.5493 14.5786 0.2768 255 40 40
33.5492 14.5753 0.2768 255 40 40
33.5491 14.5720 0.2768 255 40 40
33.5490 14.5687 0.2768 255 40 40
33.5489 14.5654 0.2768 255 40 40
33.5489 14.5621 0.2768 255 40 40
33.5488 14.5588 0.2768 255 40 40
33.5487 14.5555 0.2768 255 40 40
33.5486 14.5522 0.2768 255 40 40
33.5485 14.5490 0.2768 255 40 40
33.5484 14.5457 0.2768 255 40 40
33.5483 14.5424 0.2768 255 40 40
33.5482 14.5391 0.2768 255 40 40
33.5481 14.5358 0.2768 255 40 40
33.5481 14.5325 0.2768 255 40 40
33.5480 14.5292 0.2768 255 40 40
33.5479 14.5259 0.2768 255 40 40
33.5478 14.5226 0.2768 255 40 40
33.5477 14.5194 0.2768 255 40 40
33.5476 14.5161 0.2768 255 40 40
33.5475 14.5128 0.2768 255 40 40
33.5474 14.5095 0.2768 255 40 40
33.5474 14.5062 0.2768 255 40 40
33.5473 14.5029 0.2768 255 40 40
33.5472 14.4996 0.2768 255 40 40
33.5471 14.4963 0.2768 255 40 40
33.5470 14.4930 0.2768 255 40 40
33.5469 14.4897 0.2768 255 40 40
33.5468 14.4865 0.2768 255 40 40
33.5467 14.4832 0.2768 255 40 40
33.5467 14.4799 0.2768 255 40 40
33.5466 14.4766 0.2768 255 40 40
33.5465 14.4733 0.2768 255 40 40
33.5464 14.4700 0.2768 255 40 40
33.5463 14.4667 0.2768 255 40 40
33.5462 14.4634 0.2768 255 40 40
33.5461 14.4601 0.2768 255 40 40
33.5460 14.4568 0.2768 255 40 40
33.5460 14.4536 0.2768 255 40 40
33.5459 14.4503 0.2768 255 40 40
33.5458 14.4470 0.2768 255 40 40
33.5457 14.4437 0.2768 255 40 40
33.5456 14.4404 0.2768 255 40 40
33.5455 14.4371 0.2768 255 40 40
33.5454 14.4338 0.2768 255 40 40
33.5453 14.4305 0.2768 255 40 40
33.5452 14.4272 0.2768 255 40 40
33.5452 14.4239 0.2768 255 40 40
33.5451 14.4207 0.2768 255 40 40
33.5450 14.4174 0.2768 255 40 40
33.5449 14.4141 0.2768 255 40 40
33.5448 14.4108 0.2768 255 40 40
33.5447 14.4075 0.2768 255 40 40
33.5446 14.4042 0.2768 255 40 40
33.5445 14.4009 0.2768 255 40 40
33.5445 14.3976 0.2768 255 40 40
33.5444 14.3943 0.2768 255 40 40
33.5443 14.3910 0.2768 255 40 40
33.5442 14.3878 0.2768 255 40 40
33.5441 14.3845 0.2768 255 40 40
33.5440 14.3812 0.2768 255 40 40
33.5439 14.3779 0.2768 255 40 40
33.5438 14.3746 0.2768 255 40 40
33.5438 14.3713 0.2768 255 40 40
33.5437 14.3680 0.2768 255 40 40
33.5436 14.3647 0.2768 255 40 40
33.5435 14.3614 0.2768 255 40 40
33.5434 14.3581 0.2768 255 40 40
33.5433 14.3549 0.2768 255 40 40
33.5432 14.3516 0.2768 255 40 40
33.5431 14.3483 0.2768 255 40 40
33.5430 14.3450 0.2768 255 40 40
33.5430 14.3417 0.2768 255 40 40
33.5429 14.3384 0.2768 255 40 40
33.5428 14.3351 0.2768 255 40 40
33.5427 14.3318 0.2768 255 40 40
33.5426 14.3285 0.2768 255 40 40
33.5425 14.3252 0.2768 255 40 40
33.5424 14.3220 0.2768 255 40 40
33.5423 14.3187 0.2768 255 40 40
33.5423 14.3154 0.2768 255 40 40
33.5422 14.3121 0.2768 255 40 40
33.5421 14.3088 0.2768 255 40 40
33.5420 14.3055 0.2768 255 40 40
33.5419 14.3022 0.2768 255 40 40
33.5418 14.2989 0.2768 255 40 40
33.5417 14.2956 0.2768 255 40 40
33.5416 14.2923 0.2768 255 40 40
33.5416 14.2891 0.2768 255 40 40
33.5415 14.2858 0.2768 255 40 40
33.5414 14.2825 0.2768 255 40 40
33.5413 14.2792 0.2768 255 40 40
33.5412 14.2759 0.2768 255 40 40
33.5411 14.2726 0.2768 255 40 40
33.5410 14.2693 0.2768 255 40 40
33.5409 14.2660 0.2768 255 40 40
33.5409 14.2627 0.2768 255 40 40
33.5408 14.2594 0.2768 255 40 40
33.5407 14.2562 0.2768 255 40 40
33.5406 14.2529 0.2768 255 40 40
33.5405 14.2496 0.2768 255 40 40
33.5404 14.2463 0.2768 255 40 40
33.5403 14.2430 0.2768 255 40 40
33.5402 14.2397 0.2768 255 40 40
33.5401 14.2364 0.2768 255 40 40
33.5401 14.2331 0.2768 255 40 40
33.5400 14.2298 0.2768 255 40 40
33.5399 14.2265 0.2768 255 40 40
33.5398 14.2233 0.2768 255 40 40
33.5397 14.2200 0.2768 255 40 40
33.5396 14.2167 0.2768 255 40 40
33.5395 14.2134 0.2768 255 40 40
33.5394 14.2101 0.2768 255 40 40
33.5394 14.2068 0.2768 255 40 40
33.5393 14.2035 0.2768 255 40 40
33.5392 14.2002 0.2768 255 40 40
33.5391 14.1969 0.2768 255 40 40
33.5390 14.1937 0.2768 255 40 40
33.5389 14.1904 0.2768 255 40 40
33.5388 14.1871 0.2768 255 40 40
33.5387 14.1838 0.2768 255 40 40
33.5387 14.1805 0.2768 255 40 40
33.5386 14.1772 0.2768 255 40 40
33.5385 14.1739 0.2768 255 40 40
33.5384 14.1706 0.2768 255 40 40
33.5383 14.1673 0.2768 255 40 40
33.5382 14.1640 0.2768 255 40 40
33.5381 14.1608 0.2768 255 40 40
33.5380 14.1575 0.2768 255 40 40
33.5379 14.1542 0.2768 255 40 40
33.5379 14.1509 0.2768 255 40 40
33.5378 14.1476 0.2768 255 40 40
33.5378 14.1476 2.0062 255 40 40
33.5406 14.1475 2.0062 255 40 40
33.5434 14.1474 2.0062 255 40 40
33.5463 14.1474 2.0062 255 40 40
33.5491 14.1473 2.0062 255 40 40
33.5520 14.1472 2.0062 255 40 40
33.5548 14.1471 2.0062 255 40 40
33.5576 14.1471 2.0062 255 40 40
33.5605 14.1470 2.0062 255 40 40
33.5633 14.1469 2.0062 255 40 40
33.5661 14.1468 2.0062 255 40 40
33.5690 14.1468 2.0062 255 40 40
33.5718 14.1467 2.0062 255 40 40
33.5746 14.1466 2.0062 255 40 40
33.5775 14.1465 2.0062 255 40 40
33.5803 14.1465 2.0062 255 40 40
33.5832 14.1464 2.0062 255 40 40
33.5860 14.1463 2.0062 255 40 40
33.5888 14.1462 2.0062 255 40 40
33.5917 14.1462 2.0062 255 40 40
33.5945 14.1461 2.0062 255 40 40
33.5973 14.1460 2.0062 255 40 40
33.6002 14.1459 2.0062 255 40 40
33.6030 14.1458 2.0062 255 40 40
33.6058 14.1458 2.0062 255 40 40
33.6087 14.1457 2.0062 255 40 40
33.6115 14.1456 2.0062 255 40 40
33.6143 14.1455 2.0062 255 40 40
33.6172 14.1455 2.0062 255 40 40
33.6200 14.1454 2.0062 255 40 40
33.6229 14.1453 2.0062 255 40 40
33.6257 14.1452 2.0062 255 40 40
33.6285 14.1452 2.0062 255 40 40
33.6314 14.1451 2.0062 255 40 40
33.6342 14.1450 2.0062 255 40 40
33.6370 14.1449 2.0062 255 40 40
33.6399 14.1449 2.0062 255 40 40
33.6427 14.1448 2.0062 255 40 40
33.6455 14.1447 2.0062 255 40 40
33.6484 14.1446 2.0062 255 40 40
33.6512 14.1446 2.0062 255 40 40
33.6541 14.1445 2.0062 255 40 40
33.6569 14.1444 2.0062 255 40 40
33.6597 14.1443 2.0062 255 40 40
33.6626 14.1443 2.0062 255 40 40
33.6654 14.1442 2.0062 255 40 40
33.6682 14.1441 2.0062 255 40 40
33.6711 14.1440 2.0062 255 40 40
33.6739 14.1440 2.0062 255 40 40
33.6767 14.1439 2.0062 255 40 40
33.6796 14.1438 2.0062 255 40 40
33.6824 14.1437 2.0062 255 40 40
33.6853 14.1437 2.0062 255 40 40
33.6881 14.1436 2.0062 255 40 40
33.6909 14.1435 2.0062 255 40 40
33.6938 14.1434 2.0062 255 40 40
33.6966 14.1433 2.0062 255 40 40
33.6994 14.1433 2.0062 255 40 40
33.7023 14.1432 2.0062 255 40 40
33.7051 14.1431 2.0062 255 40 40
33.7079 14.1430 2.0062 255 40 40
33.7108 14.1430 2.0062 255 40 40
33.7136 14.1429 2.0062 255 40 40
33.7164 14.1428 2.0062 255 40 40
33.7193 14.1427 2.0062 255 40 40
33.7221 14.1427 2.0062 255 40 40
33.7250 14.1426 2.0062 255 40 40
33.7278 14.1425 2.0062 255 40 40
33.7306 14.1424 2.0062 255 40 40
33.7335 14.1424 2.0062 255 40 40
33.7363 14.1423 2.0062 255 40 40
33.7391 14.1422 2.0062 255 40 40
33.7420 14.1421 2.0062 255 40 40
33.7448 14.1421 2.0062 255 40 40
33.7476 14.1420 2.0062 255 40 40
33.7505 14.1419 2.0062 255 40 40
33.7533 14.1418 2.0062 255 40 40
33.7562 14.1418 2.0062 255 40 40
33.7590 14.1417 2.0062 255 40 40
33.7618 14.1416 2.0062 255 40 40
33.7647 14.1415 2.0062 255 40 40
33.7675 14.1415 2.0062 255 40 40
33.7703 14.1414 2.0062 255 40 40
33.7732 14.1413 2.0062 255 40 40
33.7760 14.1412 2.0062 255 40 40
33.7788 14.1411 2.0062 255 40 40
33.7817 14.1411 2.0062 255 40 40
33.7845 14.1410 2.0062 255 40 40
33.7874 14.1409 2.0062 255 40 40
33.7902 14.1408 2.0062 255 40 40
33.7930 14.1408 2.0062 255 40 40
33.7959 14.1407 2.0062 255 40 40
33.7987 14.1406 2.0062 255 40 40
33.8015 14.1405 2.0062 255 40 40
33.8044 14.1405 2.0062 255 40 40
33.8072 14.1404 2.0062 255 40 40
33.8100 14.1403 2.0062 255 40 40
33.8129 14.1402 2.0062 255 40 40
33.8157 14.1402 2.0062 255 40 40
33.8186 14.1401 2.0062 255 40 40
33.8214 14.1400 2.0062 255 40 40
33.8242 14.1399 2.0062 255 40 40
33.8271 14.1399 2.0062 255 40 40
33.8299 14.1398 2.0062 255 40 40
33.8327 14.1397 2.0062 255 40 40
33.8356 14.1396 2.0062 255 40 40
33.8384 14.1396 2.0062 255 40 40
33.8412 14.1395 2.0062 255 40 40
33.8441 14.1394 2.0062 255 40 40
33.8469 14.1393 2.0062 255 40 40
33.8498 14.1393 2.0062 255 40 40
33.8526 14.1392 2.0062 255 40 40
33.8554 14.1391 2.0062 255 40 40
33.8583 14.1390 2.0062 255 40 40
33.8611 14.1390 2.0062 255 40 40
33.8639 14.1389 2.0062 255 40 40
33.8668 14.1388 2.0062 255 40 40
33.8696 14.1387 2.0062 255 40 40
33.8724 14.1386 2.0062 255 40 40
33.8753 14.1386 2.0062 255 40 40
33.8781 14.1385 2.0062 255 40 40
33.8809 14.1384 2.0062 255 40 40
33.8838 14.1383 2.0062 255 40 40
33.8866 14.1383 2.0062 255 40 40
33.8895 14.1382 2.0062 255 40 40
33.8923 14.1381 2.0062 255 40 40
33.8951 14.1380 2.0062 255 40 40
33.8980 14.1380 2.0062 255 40 40
33.9008 14.1379 2.0062 255 40 40
33.9036 14.1378 2.0062 255 40 40
33.9065 14.1377 2.0062 255 40 40
33.9093 14.1377 2.0062 255 40 40
33.9121 14.1376 2.0062 255 40 40
33.9150 14.1375 2.0062 255 40 40
33.9178 14.1374 2.0062 255 40 40
33.9207 14.1374 2.0062 255 40 40
33.9235 14.1373 2.0062 255 40 40
33.9263 14.1372 2.0062 255 40 40
33.9292 14.1371 2.0062 255 40 40
33.9320 14.1371 2.0062 255 40 40
33.9348 14.1370 2.0062 255 40 40
33.9377 14.1369 2.0062 255 40 40
33.9405 14.1368 2.0062 255 40 40
33.9433 14.1368 2.0062 255 40 40
33.9462 14.1367 2.0062 255 40 40
33.9490 14.1366 2.0062 255 40 40
33.9519 14.1365 2.0062 255 40 40
33.9547 14.1364 2.0062 255 40 40
33.9575 14.1364 2.0062 255 40 40
33.9604 14.1363 2.0062 255 40 40
33.9632 14.1362 2.0062 255 40 40
33.9660 14.1361 2.0062 255 40 40
33.9689 14.1361 2.0062 255 40 40
33.9717 14.1360 2.0062 255 40 40
33.9745 14.1359 2.0062 255 40 40
33.9774 14.1358 2.0062 255 40 40
33.9802 14.1358 2.0062 255 40 40
33.9830 14.1357 2.0062 255 40 40
33.9859 14.1356 2.0062 255 40 40
33.9887 14.1355 2.0062 255 40 40
33.9916 14.1355 2.0062 255 40 40
33.9944 14.1354 2.0062 255 40 40
33.9972 14.1353 2.0062 255 40 40
34.0001 14.1352 2.0062 255 40 40
34.0029 14.1352 2.0062 255 40 40
34.0057 14.1351 2.0062 255 40 40
34.0057 14.1351 2.0062 255 40 40
34.0058 14.1384 2.0062 255 40 40
34.0059 14.1417 2.0062 255 40 40
34.0060 14.1450 2.0062 255 40 40
34.0061 14.1482 2.0062 255 40 40
34.0062 14.1515 2.0062 255 40 40
34.0063 14.1548 2.0062 255 40 40
34.0064 14.1581 2.0062 255 40 40
34.0064 14.1614 2.0062 255 40 40
34.0065 14.1647 2.0062 255 40 40
34.0066 14.1680 2.0062 255 40 40
34.0067 14.1713 2.0062 255 40 40
34.0068 14.1746 2.0062 255 40 40
34.0069 14.1779 2.0062 255 40 40
34.0070 14.1811 2.0062 255 40 40
34.0071 14.1844 2.0062 255 40 40
34.0071 14.1877 2.0062 255 40 40
34.0072 14.1910 2.0062 255 40 40
34.0073 14.1943 2.0062 255 40 40
34.0074 14.1976 2.0062 255 40 40
34.0075 14.2009 2.0062 255 40 40
34.0076 14.2042 2.0062 255 40 40
34.0077 14.2075 2.0062 255 40 40
34.0078 14.2108 2.0062 255 40 40
34.0078 14.2140 2.0062 255 40 40
34.0079 14.2173 2.0062 255 40 40
34.0080 14.2206 2.0062 255 40 40
34.0081 14.2239 2.0062 255 40 40
34.0082 14.2272 2.0062 255 40 40
34.0083 14.2305 2.0062 255 40 40
34.0084 14.2338 2.0062 255 40 40
34.0085 14.2371 2.0062 255 40 40
34.0086 14.2404 2.0062 255 40 40
34.0086 14.2437 2.0062 255 40 40
34.0087 14.2469 2.0062 255 40 40
34.0088 14.2502 2.0062 255 40 40
34.0089 14.2535 2.0062 255 40 40
34.0090 14.2568 2.0062 255 40 40
34.0091 14.2601 2.0062 255 40 40
34.0092 14.2634 2.0062 255 40 40
34.0093 14.2667 2.0062 255 40 40
34.0093 14.2700 2.0062 255 40 40
34.0094 14.2733 2.0062 255 40 40
34.0095 14.2766 2.0062 255 40 40
34.0096 14.2798 2.0062 255 40 40
34.0097 14.2831 2.0062 255 40 40
34.0098 14.2864 2.0062 255 40 40
34.0099 14.2897 2.0062 255 40 40
34.0100 14.2930 2.0062 255 40 40
34.0100 14.2963 2.0062 255 40 40
34.0101 14.2996 2.0062 255 40 40
34.0102 14.3029 2.0062 255 40 40
34.0103 14.3062 2.0062 255 40 40
34.0104 14.3095 2.0062 255 40 40
34.0105 14.3127 2.0062 255 40 40
34.0106 14.3160 2.0062 255 40 40
34.0107 14.3193 2.0062 255 40 40
34.0107 14.3226 2.0062 255 40 40
34.0108 14.3259 2.0062 255 40 40
34.0109 14.3292 2.0062 255 40 40
34.0110 14.3325 2.0062 255 40 40
34.0111 14.3358 2.0062 255 40 40
34.0112 14.3391 2.0062 255 40 40
34.0113 14.3423 2.0062 255 40 40
34.0114 14.3456 2.0062 255 40 40
34.0115 14.3489 2.0062 255 40 40
34.0115 14.3522 2.0062 255 40 40
34.0116 14.3555 2.0062 255 40 40
34.0117 14.3588 2.0062 255 40 40
34.0118 14.3621 2.0062 255 40 40
34.0119 14.3654 2.0062 255 40 40
34.0120 14.3687 2.0062 255 40 40
34.0121 14.3720 2.0062 255 40 40
34.0122 14.3752 2.0062 255 40 40
34.0122 14.3785 2.0062 255 40 40
34.0123 14.3818 2.0062 255 40 40
34.0124 14.3851 2.0062 255 40 40
34.0125 14.3884 2.0062 255 40 40
34.0126 14.3917 2.0062 255 40 40
34.0127 14.3950 2.0062 255 40 40
34.0128 14.3983 2.0062 255 40 40
34.0129 14.4016 2.0062 255 40 40
34.0129 14.4049 2.0062 255 40 40
34.0130 14.4081 2.0062 255 40 40
34.0131 14.4114 2.0062 255 40 40
34.0132 14.4147 2.0062 255 40 40
34.0133 14.4180 2.0062 255 40 40
34.0134 14.4213 2.0062 255 40 40
34.0135 14.4246 2.0062 255 40 40
34.0136 14.4279 2.0062 255 40 40
34.0137 14.4312 2.0062 255 40 40
34.0137 14.4345 2.0062 255 40 40
34.0138 14.4378 2.0062 255 40 40
34.0139 14.4410 2.0062 255 40 40
34.0140 14.4443 2.0062 255 40 40
34.0141 14.4476 2.0062 255 40 40
34.0142 14.4509 2.0062 255 40 40
34.0143 14.4542 2.0062 255 40 40
34.0144 14.4575 2.0062 255 40 40
34.0144 14.4608 2.0062 255 40 40
34.0145 14.4641 2.0062 255 40 40
34.0146 14.4674 2.0062 255 40 40
34.0147 14.4707 2.0062 255 40 40
34.0148 14.4739 2.0062 255 40 40
34.0149 14.4772 2.0062 255 40 40
34.0150 14.4805 2.0062 255 40 40
34.0151 14.4838 2.0062 255 40 40
34.0151 14.4871 2.0062 255 40 40
34.0152 14.4904 2.0062 255 40 40
34.0153 14.4937 2.0062 255 40 40
34.0154 14.4970 2.0062 255 40 40
34.0155 14.5003 2.0062 255 40 40
34.0156 14.5036 2.0062 255 40 40
34.0157 14.5068 2.0062 255 40 40
34.0158 14.5101 2.0062 255 40 40
34.0159 14.5134 2.0062 255 40 40
34.0159 14.5167 2.0062 255 40 40
34.0160 14.5200 2.0062 255 40 40
34.0161 14.5233 2.0062 255 40 40
34.0162 14.5266 2.0062 255 40 40
34.0163 14.5299 2.0062 255 40 40
34.0164 14.5332 2.0062 255 40 40
34.0165 14.5365 2.0062 255 40 40
34.0166 14.5397 2.0062 255 40 40
34.0166 14.5430 2.0062 255 40 40
34.0167 14.5463 2.0062 255 40 40
34.0168 14.5496 2.0062 255 40 40
34.0169 14.5529 2.0062 255 40 40
34.0170 14.5562 2.0062 255 40 40
34.0171 14.5595 2.0062 255 40 40
34.0172 14.5628 2.0062 255 40 40
34.0173 14.5661 2.0062 255 40 40
34.0173 14.5694 2.0062 255 40 40
34.0174 14.5726 2.0062 255 40 40
34.0175 14.5759 2.0062 255 40 40
34.0176 14.5792 2.0062 255 40 40
34.0177 14.5825 2.0062 255 40 40
34.0178 14.5858 2.0062 255 40 40
34.0179 14.5891 2.0062 255 40 40
34.0180 14.5924 2.0062 255 40 40
34.0181 14.5957 2.0062 255 40 40
34.0181 14.5990 2.0062 255 40 40
34.0182 14.6023 2.0062 255 40 40
34.0183 14.6055 2.0062 255 40 40
34.0184 14.6088 2.0062 255 40 40
34.0185 14.6121 2.0062 255 40 40
34.0186 14.6154 2.0062 255 40 40
34.0187 14.6187 2.0062 255 40 40
34.0188 14.6220 2.0062 255 40 40
34.0188 14.6253 2.0062 255 40 40
34.0189 14.6286 2.0062 255 40 40
34.0190 14.6319 2.0062 255 40 40
34.0191 14.6351 2.0062 255 40 40
34.0192 14.6384 2.0062 255 40 40
34.0193 14.6417 2.0062 255 40 40
34.0194 14.6450 2.0062 255 40 40
34.0195 14.6483 2.0062 255 40 40
34.0195 14.6516 2.0062 255 40 40
34.0196 14.6549 2.0062 255 40 40
34.0197 14.6582 2.0062 255 40 40
34.0198 14.6615 2.0062 255 40 40
34.0199 14.6648 2.0062 255 40 40
34.0200 14.6680 2.0062 255 40 40
34.0201 14.6713 2.0062 255 40 40
34.0202 14.6746 2.0062 255 40 40
34.0202 14.6779 2.0062 255 40 40
34.0202 14.6779 2.0062 255 40 40
34.0174 14.6780 2.0062 255 40 40
34.0146 14.6781 2.0062 255 40 40
34.0117 14.6781 2.0062 255 40 40
34.0089 14.6782 2.0062 255 40 40
34.0061 14.6783 2.0062 255 40 40
34.0032 14.6784 2.0062 255 40 40
34.0004 14.6784 2.0062 255 40 40
33.9976 14.6785 2.0062 255 40 40
33.9947 14.6786 2.0062 255 40 40
33.9919 14.6787 2.0062 255 40 40
33.9891 14.6788 2.0062 255 40 40
33.9862 14.6788 2.0062 255 40 40
33.9834 14.6789 2.0062 255 40 40
33.9805 14.6790 2.0062 255 40 40
33.9777 14.6791 2.0062 255 40 40
33.9749 14.6791 2.0062 255 40 40
33.9720 14.6792 2.0062 255 40 40
33.9692 14.6793 2.0062 255 40 40
33.9664 14.6794 2.0062 255 40 40
33.9635 14.6794 2.0062 255 40 40
33.9607 14.6795 2.0062 255 40 40
33.9579 14.6796 2.0062 255 40 40
33.9550 14.6797 2.0062 255 40 40
33.9522 14.6797 2.0062 255 40 40
33.9493 14.6798 2.0062 255 40 40
33.9465 14.6799 2.0062 255 40 40
33.9437 14.6800 2.0062 255 40 40
33.9408 14.6800 2.0062 255 40 40
33.9380 14.6801 2.0062 255 40 40
33.9352 14.6802 2.0062 255 40 40
33.9323 14.6803 2.0062 255 40 40
33.9295 14.6803 2.0062 255 40 40
33.9267 14.6804 2.0062 255 40 40
33.9238 14.6805 2.0062 255 40 40
33.9210 14.6806 2.0062 255 40 40
33.9181 14.6806 2.0062 255 40 40
33.9153 14.6807 2.0062 255 40 40
33.9125 14.6808 2.0062 255 40 40
33.9096 14.6809 2.0062 255 40 40
33.9068 14.6810 2.0062 255 40 40
33.9040 14.6810 2.0062 255 40 40
33.9011 14.6811 2.0062 255 40 40
33.8983 14.6812 2.0062 255 40 40
33.8955 14.6813 2.0062 255 40 40
33.8926 14.6813 2.0062 255 40 40
33.8898 14.6814 2.0062 255 40 40
33.8869 14.6815 2.0062 255 40 40
33.8841 14.6816 2.0062 255 40 40
33.8813 14.6816 2.0062 255 40 40
33.8784 14.6817 2.0062 255 40 40
33.8756 14.6818 2.0062 255 40 40
33.8728 14.6819 2.0062 255 40 40
33.8699 14.6819 2.0062 255 40 40
33.8671 14.6820 2.0062 255 40 40
33.8643 14.6821 2.0062 255 40 40
33.8614 14.6822 2.0062 255 40 40
33.8586 14.6822 2.0062 255 40 40
33.8558 14.6823 2.0062 255 40 40
33.8529 14.6824 2.0062 255 40 40
33.8501 14.6825 2.0062 255 40 40
33.8472 14.6825 2.0062 255 40 40
33.8444 14.6826 2.0062 255 40 40
33.8416 14.6827 2.0062 255 40 40
33.8387 14.6828 2.0062 255 40 40
33.8359 14.6828 2.0062 255 40 40
33.8331 14.6829 2.0062 255 40 40
33.8302 14.6830 2.0062 255 40 40
33.8274 14.6831 2.0062 255 40 40
33.8246 14.6831 2.0062 255 40 40
33.8217 14.6832 2.0062 255 40 40
33.8189 14.6833 2.0062 255 40 40
33.8160 14.6834 2.0062 255 40 40
33.8132 14.6835 2.0062 255 40 40
33.8104 14.6835 2.0062 255 40 40
33.8075 14.6836 2.0062 255 40 40
33.8047 14.6837 2.0062 255 40 40
33.8019 14.6838 2.0062 255 40 40
33.7990 14.6838 2.0062 255 40 40
33.7962 14.6839 2.0062 255 40 40
33.7934 14.6840 2.0062 255 40 40
33.7905 14.6841 2.0062 255 40 40
33.7877 14.6841 2.0062 255 40 40
33.7848 14.6842 2.0062 255 40 40
33.7820 14.6843 2.0062 255 40 40
33.7792 14.6844 2.0062 255 40 40
33.7763 14.6844 2.0062 255 40 40
33.7735 14.6845 2.0062 255 40 40
33.7707 14.6846 2.0062 255 40 40
33.7678 14.6847 2.0062 255 40 40
33.7650 14.6847 2.0062 255 40 40
33.7622 14.6848 2.0062 255 40 40
33.7593 14.6849 2.0062 255 40 40
33.7565 14.6850 2.0062 255 40 40
33.7537 14.6850 2.0062 255 40 40
33.7508 14.6851 2.0062 255 40 40
33.7480 14.6852 2.0062 255 40 40
33.7451 14.6853 2.0062 255 40 40
33.7423 14.6853 2.0062 255 40 40
33.7395 14.6854 2.0062 255 40 40
33.7366 14.6855 2.0062 255 40 40
33.7338 14.6856 2.0062 255 40 40
33.7310 14.6856 2.0062 255 40 40
33.7281 14.6857 2.0062 255 40 40
33.7253 14.6858 2.0062 255 40 40
33.7225 14.6859 2.0062 255 40 40
33.7196 14.6860 2.0062 255 40 40
33.7168 14.6860 2.0062 255 40 40
33.7139 14.6861 2.0062 255 40 40
33.7111 14.6862 2.0062 255 40 40
33.7083 14.6863 2.0062 255 40 40
33.7054 14.6863 2.0062 255 40 40
33.7026 14.6864 2.0062 255 40 40
33.6998 14.6865 2.0062 255 40 40
33.6969 14.6866 2.0062 255 40 40
33.6941 14.6866 2.0062 255 40 40
33.6913 14.6867 2.0062 255 40 40
33.6884 14.6868 2.0062 255 40 40
33.6856 14.6869 2.0062 255 40 40
33.6827 14.6869 2.0062 255 40 40
33.6799 14.6870 2.0062 255 40 40
33.6771 14.6871 2.0062 255 40 40
33.6742 14.6872 2.0062 255 40 40
33.6714 14.6872 2.0062 255 40 40
33.6686 14.6873 2.0062 255 40 40
33.6657 14.6874 2.0062 255 40 40
33.6629 14.6875 2.0062 255 40 40
33.6601 14.6875 2.0062 255 40 40
33.6572 14.6876 2.0062 255 40 40
33.6544 14.6877 2.0062 255 40 40
33.6516 14.6878 2.0062 255 40 40
33.6487 14.6878 2.0062 255 40 40
33.6459 14.6879 2.0062 255 40 40
33.6430 14.6880 2.0062 255 40 40
33.6402 14.6881 2.0062 255 40 40
33.6374 14.6882 2.0062 255 40 40
33.6345 14.6882 2.0062 255 40 40
33.6317 14.6883 2.0062 255 40 40
33.6289 14.6884 2.0062 255 40 40
33.6260 14.6885 2.0062 255 40 40
33.6232 14.6885 2.0062 255 40 40
33.6203 14.6886 2.0062 255 40 40
33.6175 14.6887 2.0062 255 40 40
33.6147 14.6888 2.0062 255 40 40
33.6118 14.6888 2.0062 255 40 40
33.6090 14.6889 2.0062 255 40 40
33.6062 14.6890 2.0062 255 40 40
33.6033 14.6891 2.0062 255 40 40
33.6005 14.6891 2.0062 255 40 40
33.5977 14.6892 2.0062 255 40 40
33.5948 14.6893 2.0062 255 40 40
33.5920 14.6894 2.0062 255 40 40
33.5892 14.6894 2.0062 255 40 40
33.5863 14.6895 2.0062 255 40 40
33.5835 14.6896 2.0062 255 40 40
33.5806 14.6897 2.0062 255 40 40
33.5778 14.6897 2.0062 255 40 40
33.5750 14.6898 2.0062 255 40 40
33.5721 14.6899 2.0062 255 40 40
33.5693 14.6900 2.0062 255 40 40
33.5665 14.6900 2.0062 255 40 40
33.5636 14.6901 2.0062 255 40 40
33.5608 14.6902 2.0062 255 40 40
33.5580 14.6903 2.0062 255 40 40
33.5551 14.6903 2.0062 255 40 40
33.5523 14.6904 2.0062 255 40 40
33.5523 14.6904 2.0062 255 40 40
33.5522 14.6871 2.0062 255 40 40
33.5521 14.6838 2.0062 255 40 40
33.5520 14.6806 2.0062 255 40 40
33.5519 14.6773 2.0062 255 40 40
33.5518 14.6740 2.0062 255 40 40
33.5518 14.6707 2.0062 255 40 40
33.5517 14.6674 2.0062 255 40 40
33.5516 14.6641 2.0062 255 40 40
33.5515 14.6608 2.0062 255 40 40
33.5514 14.6575 2.0062 255 40 40
33.5513 14.6542 2.0062 255 40 40
33.5512 14.6509 2.0062 255 40 40
33.5511 14.6477 2.0062 255 40 40
33.5511 14.6444 2.0062 255 40 40
33.5510 14.6411 2.0062 255 40 40
33.5509 14.6378 2.0062 255 40 40
33.5508 14.6345 2.0062 255 40 40
33.5507 14.6312 2.0062 255 40 40
33.5506 14.6279 2.0062 255 40 40
33.5505 14.6246 2.0062 255 40 40
33.5504 14.6213 2.0062 255 40 40
33.5504 14.6180 2.0062 255 40 40
33.5503 14.6148 2.0062 255 40 40
33.5502 14.6115 2.0062 255 40 40
33.5501 14.6082 2.0062 255 40 40
33.5500 14.6049 2.0062 255 40 40
33.5499 14.6016 2.0062 255 40 40
33.5498 14.5983 2.0062 255 40 40
33.5497 14.5950 2.0062 255 40 40
33.5496 14.5917 2.0062 255 40 40
33.5496 14.5884 2.0062 255 40 40
33.5495 14.5851 2.0062 255 40 40
33.5494 14.5819 2.0062 255 40 40
33.5493 14.5786 2.0062 255 40 40
33.5492 14.5753 2.0062 255 40 40
33.5491 14.5720 2.0062 255 40 40
33.5490 14.5687 2.0062 255 40 40
33.5489 14.5654 2.0062 255 40 40
33.5489 14.5621 2.0062 255 40 40
33.5488 14.5588 2.0062 255 40 40
33.5487 14.5555 2.0062 255 40 40
33.5486 14.5522 2.0062 255 40 40
33.5485 14.5490 2.0062 255 40 40
33.5484 14.5457 2.0062 255 40 40
33.5483 14.5424 2.0062 255 40 40
33.5482 14.5391 2.0062 255 40 40
33.5481 14.5358 2.0062 255 40 40
33.5481 14.5325 2.0062 255 40 40
33.5480 14.5292 2.0062 255 40 40
33.5479 14.5259 2.0062 255 40 40
33.5478 14.5226 2.0062 255 40 40
33.5477 14.5194 2.0062 255 40 40
33.5476 14.5161 2.0062 255 40 40
33.5475 14.5128 2.0062 255 40 40
33.5474 14.5095 2.0062 255 40 40
33.5474 14.5062 2.0062 255 40 40
33.5473 14.5029 2.0062 255 40 40
33.5472 14.4996 2.0062 255 40 40
33.5471 14.4963 2.0062 255 40 40
33.5470 14.4930 2.0062 255 40 40
33.5469 14.4897 2.0062 255 40 40
33.5468 14.4865 2.0062 255 40 40
33.5467 14.4832 2.0062 255 40 40
33.5467 14.4799 2.0062 255 40 40
33.5466 14.4766 2.0062 255 40 40
33.5465 14.4733 2.0062 255 40 40
33.5464 14.4700 2.0062 255 40 40
33.5463 14.4667 2.0062 255 40 40
33.5462 14.4634 2.0062 255 40 40
33.5461 14.4601 2.0062 255 40 40
33.5460 14.4568 2.0062 255 40 40
33.5460 14.4536 2.0062 255 40 40
33.5459 14.4503 2.0062 255 40 40
33.5458 14.4470 2.0062 255 40 40
33.5457 14.4437 2.0062 255 40 40
33.5456 14.4404 2.0062 255 40 40
33.5455 14.4371 2.0062 255 40 40
33.5454 14.4338 2.0062 255 40 40
33.5453 14.4305 2.0062 255 40 40
33.5452 14.4272 2.0062 255 40 40
33.5452 14.4239 2.0062 255 40 40
33.5451 14.4207 2.0062 255 40 40
33.5450 14.4174 2.0062 255 40 40
33.5449 14.4141 2.0062 255 40 40
33.5448 14.4108 2.0062 255 40 40
33.5447 14.4075 2.0062 255 40 40
33.5446 14.4042 2.0062 255 40 40
33.5445 14.4009 2.0062 255 40 40
33.5445 14.3976 2.0062 255 40 40
33.5444 14.3943 2.0062 255 40 40
33.5443 14.3910 2.0062 255 40 40
33.5442 14.3878 2.0062 255 40 40
33.5441 14.3845 2.0062 255 40 40
33.5440 14.3812 2.0062 255 40 40
33.5439 14.3779 2.0062 255 40 40
33.5438 14.3746 2.0062 255 40 40
33.5438 14.3713 2.0062 255 40 40
33.5437 14.3680 2.0062 255 40 40
33.5436 14.3647 2.0062 255 40 40
33.5435 14.3614 2.0062 255 40 40
33.5434 14.3581 2.0062 255 40 40
33.5433 14.3549 2.0062 255 40 40
33.5432 14.3516 2.0062 255 40 40
33.5431 14.3483 2.0062 255 40 40
33.5430 14.3450 2.0062 255 40 40
33.5430 14.3417 2.0062 255 40 40
33.5429 14.3384 2.0062 255 40 40
33.5428 14.3351 2.0062 255 40 40
33.5427 14.3318 2.0062 255 40 40
33.5426 14.3285 2.0062 255 40 40
33.5425 14.3252 2.0062 255 40 40
33.5424 14.3220 2.0062 255 40 40
33.5423 14.3187 2.0062 255 40 40
33.5423 14.3154 2.0062 255 40 40
33.5422 14.3121 2.0062 255 40 40
33.5421 14.3088 2.0062 255 40 40
33.5420 14.3055 2.0062 255 40 40
33.5419 14.3022 2.0062 255 40 40
33.5418 14.2989 2.0062 255 40 40
33.5417 14.2956 2.0062 255 40 40
33.5416 14.2923 2.0062 255 40 40
33.5416 14.2891 2.0062 255 40 40
33.5415 14.2858 2.0062 255 40 40
33.5414 14.2825 2.0062 255 40 40
33.5413 14.2792 2.0062 255 40 40
33.5412 14.2759 2.0062 255 40 40
33.5411 14.2726 2.0062 255 40 40
33.5410 14.2693 2.0062 255 40 40
33.5409 14.2660 2.0062 255 40 40
33.5409 14.2627 2.0062 255 40 40
33.5408 14.2594 2.0062 255 40 40
33.5407 14.2562 2.0062 255 40 40
33.5406 14.2529 2.0062 255 40 40
33.5405 14.2496 2.0062 255 40 40
33.5404 14.2463 2.0062 255 40 40
33.5403 14.2430 2.0062 255 40 40
33.5402 14.2397 2.0062 255 40 40
33.5401 14.2364 2.0062 255 40 40
33.5401 14.2331 2.0062 255 40 40
33.5400 14.2298 2.0062 255 40 40
33.5399 14.2265 2.0062 255 40 40
33.5398 14.2233 2.0062 255 40 40
33.5397 14.2200 2.0062 255 40 40
33.5396 14.2167 2.0062 255 40 40
33.5395 14.2134 2.0062 255 40 40
33.5394 14.2101 2.0062 255 40 40
33.5394 14.2068 2.0062 255 40 40
33.5393 14.2035 2.0062 255 40 40
33.5392 14.2002 2.0062 255 40 40
33.5391 14.1969 2.0062 255 40 40
33.5390 14.1937 2.0062 255 40 40
33.5389 14.1904 2.0062 255 40 40
33.5388 14.1871 2.0062 255 40 40
33.5387 14.1838 2.0062 255 40 40
33.5387 14.1805 2.0062 255 40 40
33.5386 14.1772 2.0062 255 40 40
33.5385 14.1739 2.0062 255 40 40
33.5384 14.1706 2.0062 255 40 40
33.5383 14.1673 2.0062 255 40 40
33.5382 14.1640 2.0062 255 40 40
33.5381 14.1608 2.0062 255 40 40
33.5380 14.1575 2.0062 255 40 40
33.5379 14.1542 2.0062 255 40 40
33.5379 14.1509 2.0062 255 40 40
33.5378 14.1476 2.0062 255 40 40
33.5378 14.1476 0.2768 255 40 40
33.5378 14.1476 0.2872 255 40 40
33.5378 14.1476 0.2977 255 40 40
33.5378 14.1476 0.3082 255 40 40
33.5378 14.1476 0.3187 255 40 40
33.5378 14.1476 0.3292 255 40 40
33.5378 14.1476 0.3396 255 40 40
33.5378 14.1476 0.3501 255 40 40
33.5378 14.1476 0.3606 255 40 40
33.5378 14.1476 0.3711 255 40 40
33.5378 14.1476 0.3816 255 40 40
33.5378 14.1476 0.3921 255 40 40
33.5378 14.1476 0.4025 255 40 40
33.5378 14.1476 0.4130 255 40 40
33.5378 14.1476 0.4235 255 40 40
33.5378 14.1476 0.4340 255 40 40
33.5378 14.1476 0.4445 255 40 40
33.5378 14.1476 0.4549 255 40 40
33.5378 14.1476 0.4654 255 40 40
33.5378 14.1476 0.4759 255 40 40
33.5378 14.1476 0.4864 255 40 40
33.5378 14.1476 0.4969 255 40 40
33.5378 14.1476 0.5073 255 40 40
33.5378 14.1476 0.5178 255 40 40
33.5378 14.1476 0.5283 255 40 40
33.5378 14.1476 0.5388 255 40 40
33.5378 14.1476 0.5493 255 40 40
33.5378 14.1476 0.5597 255 40 40
33.5378 14.1476 0.5702 255 40 40
33.5378 14.1476 0.5807 255 40 40
33.5378 14.1476 0.5912 255 40 40
33.5378 14.1476 0.6017 255 40 40
33.5378 14.1476 0.6122 255 40 40
33.5378 14.1476 0.6226 255 40 40
33.5378 14.1476 0.6331 255 40 40
33.5378 14.1476 0.6436 255 40 40
33.5378 14.1476 0.6541 255 40 40
33.5378 14.1476 0.6646 255 40 40
33.5378 14.1476 0.6750 255 40 40
33.5378 14.1476 0.6855 255 40 40
33.5378 14.1476 0.6960 255 40 40
33.5378 14.1476 0.7065 255 40 40
33.5378 14.1476 0.7170 255 40 40
33.5378 14.1476 0.7274 255 40 40
33.5378 14.1476 0.7379 255 40 40
33.5378 14.1476 0.7484 255 40 40
33.5378 14.1476 0.7589 255 40 40
33.5378 14.1476 0.7694 255 40 40
33.5378 14.1476 0.7799 255 40 40
33.5378 14.1476 0.7903 255 40 40
33.5378 14.1476 0.8008 255 40 40
33.5378 14.1476 0.8113 255 40 40
33.5378 14.1476 0.8218 255 40 40
33.5378 14.1476 0.8323 255 40 40
33.5378 14.1476 0.8427 255 40 40
33.5378 14.1476 0.8532 255 40 40
33.5378 14.1476 0.8637 255 40 40
33.5378 14.1476 0.8742 255 40 40
33.5378 14.1476 0.8847 255 40 40
33.5378 14.1476 0.8951 255 40 40
33.5378 14.1476 0.9056 255 40 40
33.5378 14.1476 0.9161 255 40 40
33.5378 14.1476 0.9266 255 40 40
33.5378 14.1476 0.9371 255 40 40
33.5378 14.1476 0.9476 255 40 40
33.5378 14.1476 0.9580 255 40 40
33.5378 14.1476 0.9685 255 40 40
33.5378 14.1476 0.9790 255 40 40
33.5378 14.1476 0.9895 255 40 40
33.5378 14.1476 1.0000 255 40 40
33.5378 14.1476 1.0104 255 40 40
33.5378 14.1476 1.0209 255 40 40
33.5378 14.1476 1.0314 255 40 40
33.5378 14.1476 1.0419 255 40 40
33.5378 14.1476 1.0524 255 40 40
33.5378 14.1476 1.0628 255 40 40
33.5378 14.1476 1.0733 255 40 40
33.5378 14.1476 1.0838 255 40 40
33.5378 14.1476 1.0943 255 40 40
33.5378 14.1476 1.1048 255 40 40
33.5378 14.1476 1.1153 255 40 40
33.5378 14.1476 1.1257 255 40 40
33.5378 14.1476 1.1362 255 40 40
33.5378 14.1476 1.1467 255 40 40
33.5378 14.1476 1.1572 255 40 40
33.5378 14.1476 1.1677 255 40 40
33.5378 14.1476 1.1781 255 40 40
33.5378 14.1476 1.1886 255 40 40
33.5378 14.1476 1.1991 255 40 40
33.5378 14.1476 1.2096 255 40 40
33.5378 14.1476 1.2201 255 40 40
33.5378 14.1476 1.2305 255 40 40
33.5378 14.1476 1.2410 255 40 40
33.5378 14.1476 1.2515 255 40 40
33.5378 14.1476 1.2620 255 40 40
33.5378 14.1476 1.2725 255 40 40
33.5378 14.1476 1.2830 255 40 40
33.5378 14.1476 1.2934 255 40 40
33.5378 14.1476 1.3039 255 40 40
33.5378 14.1476 1.3144 255 40 40
33.5378 14.1476 1.3249 255 40 40
33.5378 14.1476 1.3354 255 40 40
33.5378 14.1476 1.3458 255 40 40
33.5378 14.1476 1.3563 255 40 40
33.5378 14.1476 1.3668 255 40 40
33.5378 14.1476 1.3773 255 40 40
33.5378 14.1476 1.3878 255 40 40
33.5378 14.1476 1.3982 255 40 40
33.5378 14.1476 1.4087 255 40 40
33.5378 14.1476 1.4192 255 40 40
33.5378 14.1476 1.4297 255 40 40
33.5378 14.1476 1.4402 255 40 40
33.5378 14.1476 1.4507 255 40 40
33.5378 14.1476 1.4611 255 40 40
33.5378 14.1476 1.4716 255 40 40
33.5378 14.1476 1.4821 255 40 40
33.5378 14.1476 1.4926 255 40 40
33.5378 14.1476 1.5031 255 40 40
33.5378 14.1476 1.5135 255 40 40
33.5378 14.1476 1.5240 255 40 40
33.5378 14.1476 1.5345 255 40 40
33.5378 14.1476 1.5450 255 40 40
33.5378 14.1476 1.5555 255 40 40
33.5378 14.1476 1.5659 255 40 40
33.5378 14.1476 1.5764 255 40 40
33.5378 14.1476 1.5869 255 40 40
33.5378 14.1476 1.5974 255 40 40
33.5378 14.1476 1.6079 255 40 40
33.5378 14.1476 1.6184 255 40 40
33.5378 14.1476 1.6288 255 40 40
33.5378 14.1476 1.6393 255 40 40
33.5378 14.1476 1.6498 255 40 40
33.5378 14.1476 1.6603 255 40 40
33.5378 14.1476 1.6708 255 40 40
33.5378 14.1476 1.6812 255 40 40
33.5378 14.1476 1.6917 255 40 40
33.5378 14.1476 1.7022 255 40 40
33.5378 14.1476 1.7127 255 40 40
33.5378 14.1476 1.7232 255 40 40
33.5378 14.1476 1.7336 255 40 40
33.5378 14.1476 1.7441 255 40 40
33.5378 14.1476 1.7546 255 40 40
33.5378 14.1476 1.7651 255 40 40
33.5378 14.1476 1.7756 255 40 40
33.5378 14.1476 1.7861 255 40 40
33.5378 14.1476 1.7965 255 40 40
33.5378 14.1476 1.8070 255 40 40
33.5378 14.1476 1.8175 255 40 40
33.5378 14.1476 1.8280 255 40 40
33.5378 14.1476 1.8385 255 40 40
33.5378 14.1476 1.8489 255 40 40
33.5378 14.1476 1.8594 255 40 40
33.5378 14.1476 1.8699 255 40 40
33.5378 14.1476 1.8804 255 40 40
33.5378 14.1476 1.8909 255 40 40
33.5378 14.1476 1.9013 255 40 40
33.5378 14.1476 1.9118 255 40 40
33.5378 14.1476 1.9223 255 40 40
33.5378 14.1476 1.9328 255 40 40
33.5378 14.1476 1.9433 255 40 40
33.5378 14.1476 1.9537 255 40 40
33.5378 14.1476 1.9642 255 40 40
33.5378 14.1476 1.9747 255 40 40
33.5378 14.1476 1.9852 255 40 40
33.5378 14.1476 1.9957 255 40 40
33.5378 14.1476 2.0062 255 40 40
34.0057 14.1351 0.2768 255 40 40
34.0057 14.1351 0.2872 255 40 40
34.0057 14.1351 0.2977 255 40 40
34.0057 14.1351 0.3082 255 40 40
34.0057 14.1351 0.3187 255 40 40
34.0057 14.1351 0.3292 255 40 40
34.0057 14.1351 0.3396 255 40 40
34.0057 14.1351 0.3501 255 40 40
34.0057 14.1351 0.3606 255 40 40
34.0057 14.1351 0.3711 255 40 40
34.0057 14.1351 0.3816 255 40 40
34.0057 14.1351 0.3921 255 40 40
34.0057 14.1351 0.4025 255 40 40
34.0057 14.1351 0.4130 255 40 40
34.0057 14.1351 0.4235 255 40 40
34.0057 14.1351 0.4340 255 40 40
34.0057 14.1351 0.4445 255 40 40
34.0057 14.1351 0.4549 255 40 40
34.0057 14.1351 0.4654 255 40 40
34.0057 14.1351 0.4759 255 40 40
34.0057 14.1351 0.4864 255 40 40
34.0057 14.1351 0.4969 255 40 40
34.0057 14.1351 0.5073 255 40 40
34.0057 14.1351 0.5178 255 40 40
34.0057 14.1351 0.5283 255 40 40
34.0057 14.1351 0.5388 255 40 40
34.0057 14.1351 0.5493 255 40 40
34.0057 14.1351 0.5597 255 40 40
34.0057 14.1351 0.5702 255 40 40
34.0057 14.1351 0.5807 255 40 40
34.0057 14.1351 0.5912 255 40 40
34.0057 14.1351 0.6017 255 40 40
34.0057 14.1351 0.6122 255 40 40
34.0057 14.1351 0.6226 255 40 40
34.0057 14.1351 0.6331 255 40 40
34.0057 14.1351 0.6436 255 40 40
34.0057 14.1351 0.6541 255 40 40
34.0057 14.1351 0.6646 255 40 40
34.0057 14.1351 0.6750 255 40 40
34.0057 14.1351 0.6855 255 40 40
34.0057 14.1351 0.6960 255 40 40
34.0057 14.1351 0.7065 255 40 40
34.0057 14.1351 0.7170 255 40 40
34.0057 14.1351 0.7274 255 40 40
34.0057 14.1351 0.7379 255 40 40
34.0057 14.1351 0.7484 255 40 40
34.0057 14.1351 0.7589 255 40 40
34.0057 14.1351 0.7694 255 40 40
34.0057 14.1351 0.7799 255 40 40
34.0057 14.1351 0.7903 255 40 40
34.0057 14.1351 0.8008 255 40 40
34.0057 14.1351 0.8113 255 40 40
34.0057 14.1351 0.8218 255 40 40
34.0057 14.1351 0.8323 255 40 40
34.0057 14.1351 0.8427 255 40 40
34.0057 14.1351 0.8532 255 40 40
34.0057 14.1351 0.8637 255 40 40
34.0057 14.1351 0.8742 255 40 40
34.0057 14.1351 0.8847 255 40 40
34.0057 14.1351 0.8951 255 40 40
34.0057 14.1351 0.9056 255 40 40
34.0057 14.1351 0.9161 255 40 40
34.0057 14.1351 0.9266 255 40 40
34.0057 14.1351 0.9371 255 40 40
34.0057 14.1351 0.9476 255 40 40
34.0057 14.1351 0.9580 255 40 40
34.0057 14.1351 0.9685 255 40 40
34.0057 14.1351 0.9790 255 40 40
34.0057 14.1351 0.9895 255 40 40
34.0057 14.1351 1.0000 255 40 40
34.0057 14.1351 1.0104 255 40 40
34.0057 14.1351 1.0209 255 40 40
34.0057 14.1351 1.0314 255 40 40
34.0057 14.1351 1.0419 255 40 40
34.0057 14.1351 1.0524 255 40 40
34.0057 14.1351 1.0628 255 40 40
34.0057 14.1351 1.0733 255 40 40
34.0057 14.1351 1.0838 255 40 40
34.0057 14.1351 1.0943 255 40 40
34.0057 14.1351 1.1048 255 40 40
34.0057 14.1351 1.1153 255 40 40
34.0057 14.1351 1.1257 255 40 40
34.0057 14.1351 1.1362 255 40 40
34.0057 14.1351 1.1467 255 40 40
34.0057 14.1351 1.1572 255 40 40
34.0057 14.1351 1.1677 255 40 40
34.0057 14.1351 1.1781 255 40 40
34.0057 14.1351 1.1886 255 40 40
34.0057 14.1351 1.1991 255 40 40
34.0057 14.1351 1.2096 255 40 40
34.0057 14.1351 1.2201 255 40 40
34.0057 14.1351 1.2305 255 40 40
34.0057 14.1351 1.2410 255 40 40
34.0057 14.1351 1.2515 255 40 40
34.0057 14.1351 1.2620 255 40 40
34.0057 14.1351 1.2725 255 40 40
34.0057 14.1351 1.2830 255 40 40
34.0057 14.1351 1.2934 255 40 40
34.0057 14.1351 1.3039 255 40 40
34.0057 14.1351 1.3144 255 40 40
34.0057 14.1351 1.3249 255 40 40
34.0057 14.1351 1.3354 255 40 40
34.0057 14.1351 1.3458 255 40 40
34.0057 14.1351 1.3563 255 40 40
34.0057 14.1351 1.3668 255 40 40
34.0057 14.1351 1.3773 255 40 40
34.0057 14.1351 1.3878 255 40 40
34.0057 14.1351 1.3982 255 40 40
34.0057 14.1351 1.4087 255 40 40
34.0057 14.1351 1.4192 255 40 40
34.0057 14.1351 1.4297 255 40 40
34.0057 14.1351 1.4402 255 40 40
34.0057 14.1351 1.4507 255 40 40
34.0057 14.1351 1.4611 255 40 40
34.0057 14.1351 1.4716 255 40 40
34.0057 14.1351 1.4821 255 40 40
34.0057 14.1351 1.4926 255 40 40
34.0057 14.1351 1.5031 255 40 40
34.0057 14.1351 1.5135 255 40 40
34.0057 14.1351 1.5240 255 40 40
34.0057 14.1351 1.5345 255 40 40
34.0057 14.1351 1.5450 255 40 40
34.0057 14.1351 1.5555 255 40 40
34.0057 14.1351 1.5659 255 40 40
34.0057 14.1351 1.5764 255 40 40
34.0057 14.1351 1.5869 255 40 40
34.0057 14.1351 1.5974 255 40 40
34.0057 14.1351 1.6079 255 40 40
34.0057 14.1351 1.6184 255 40 40
34.0057 14.1351 1.6288 255 40 40
34.0057 14.1351 1.6393 255 40 40
34.0057 14.1351 1.6498 255 40 40
34.0057 14.1351 1.6603 255 40 40
34.0057 14.1351 1.6708 255 40 40
34.0057 14.1351 1.6812 255 40 40
34.0057 14.1351 1.6917 255 40 40
34.0057 14.1351 1.7022 255 40 40
34.0057 14.1351 1.7127 255 40 40
34.0057 14.1351 1.7232 255 40 40
34.0057 14.1351 1.7336 255 40 40
34.0057 14.1351 1.7441 255 40 40
34.0057 14.1351 1.7546 255 40 40
34.0057 14.1351 1.7651 255 40 40
34.0057 14.1351 1.7756 255 40 40
34.0057 14.1351 1.7861 255 40 40
34.0057 14.1351 1.7965 255 40 40
34.0057 14.1351 1.8070 255 40 40
34.0057 14.1351 1.8175 255 40 40
34.0057 14.1351 1.8280 255 40 40
34.0057 14.1351 1.8385 255 40 40
34.0057 14.1351 1.8489 255 40 40
34.0057 14.1351 1.8594 255 40 40
34.0057 14.1351 1.8699 255 40 40
34.0057 14.1351 1.8804 255 40 40
34.0057 14.1351 1.8909 255 40 40
34.0057 14.1351 1.9013 255 40 40
34.0057 14.1351 1.9118 255 40 40
34.0057 14.1351 1.9223 255 40 40
34.0057 14.1351 1.9328 255 40 40
34.0057 14.1351 1.9433 255 40 40
34.0057 14.1351 1.9537 255 40 40
34.0057 14.1351 1.9642 255 40 40
34.0057 14.1351 1.9747 255 40 40
34.0057 14.1351 1.9852 255 40 40
34.0057 14.1351 1.9957 255 40 40
34.0057 14.1351 2.0062 255 40 40
34.0202 14.6779 0.2768 255 40 40
34.0202 14.6779 0.2872 255 40 40
