ply
format ascii 1.0
element vertex 1534
property float x
property float y
property float z
property uchar red
property uchar green
property uchar blue
end_header
0.9858 -0.0000 1.8402 60 60 60
-2.9532 -0.4235 1.0906 60 60 60
1.0904 -0.4150 1.5778 60 60 60
-1.4500 3.1327 2.0546 60 60 60
0.1117 2.0692 1.3012 60 60 60
-1.3634 1.9397 1.5999 60 60 60
0.1512 -0.4559 1.4605 60 60 60
1.4736 0.2360 1.4885 60 60 60
0.9858 -0.0000 1.8402 60 60 60
0.5059 -4.1087 1.9462 60 60 60
0.3515 -7.6807 0.2068 60 60 60
-0.9832 8.1832 3.3433 60 60 60
-8.1939 -12.0580 1.5220 60 60 60
-0.1641 2.0560 1.2279 60 60 60
5.7036 -3.1894 -0.0428 60 60 60
0.4705 -3.0869 0.0012 60 60 60
1.5312 -0.0049 1.5170 60 60 60
0.9858 -0.0000 1.8402 60 60 60
2.6732 5.3711 -0.1337 60 60 60
5.3067 0.7512 0.0161 60 60 60
6.6443 6.6118 -0.0526 60 60 60
3.4286 9.1387 1.7545 60 60 60
3.8652 8.9026 2.6066 60 60 60
-4.2482 1.9665 -0.0623 60 60 60
-1.8564 -3.0031 0.0294 60 60 60
2.1222 -4.0727 0.2257 60 60 60
2.3521 -10.0068 2.9280 60 60 60
11.6615 10.0688 0.6899 60 60 60
1.5818 0.2606 1.4792 60 60 60
-1.3991 2.0067 2.3233 60 60 60
0.9858 -0.0000 1.8402 60 60 60
1.9326 9.5609 0.0123 60 60 60
1.4982 0.0263 1.5030 60 60 60
3.8247 8.1671 -0.1116 60 60 60
0.9319 8.4367 3.0554 60 60 60
-8.2477 -11.9579 0.8235 60 60 60
5.6651 -5.7920 0.1928 60 60 60
-7.3409 -3.8596 0.2762 60 60 60
6.9520 9.2667 0.0359 60 60 60
4.4052 3.8693 -0.0709 60 60 60
-1.3742 -4.2727 1.9366 60 60 60
-10.0560 -5.9962 -0.0212 60 60 60
0.7810 9.4741 1.6577 60 60 60
3.3887 9.6781 -0.1259 60 60 60
8.5626 -7.7684 0.1919 60 60 60
10.7584 -5.7986 0.0347 60 60 60
1.4525 -0.2643 1.4910 60 60 60
1.5781 -4.1990 0.4714 60 60 60
0.1180 0.0901 1.5677 60 60 60
-0.6794 -10.6478 0.8791 60 60 60
5.8266 9.0608 0.1938 60 60 60
1.7795 3.6524 -0.0712 60 60 60
0.4608 8.2259 2.2739 60 60 60
0.9858 -0.0000 1.8402 60 60 60
3.0816 3.1411 -0.0573 60 60 60
11.5199 -12.1138 0.1894 60 60 60
5.5435 -2.5650 -0.0352 60 60 60
3.6414 -6.5071 0.1954 60 60 60
-2.1171 -3.1726 0.0215 60 60 60
2.4335 -3.9222 1.1715 60 60 60
-10.2647 -5.6161 -0.0118 60 60 60
1.8560 -10.1446 1.7694 60 60 60
0.9858 -0.0000 1.8402 60 60 60
-1.1646 -4.1989 0.3408 60 60 60
-1.4251 2.9367 1.7833 60 60 60
0.9858 -0.0000 1.8402 60 60 60
4.5776 -3.4523 -0.0432 60 60 60
-1.4528 3.3383 2.6466 60 60 60
1.5933 3.9708 -0.0836 60 60 60
0.9858 -0.0000 1.8402 60 60 60
0.9858 -0.0000 1.8402 60 60 60
-0.6541 3.5583 1.8357 60 60 60
-0.8628 2.2321 0.4977 60 60 60
1.5198 -0.4737 1.5308 60 60 60
5.1589 2.4816 -0.0106 60 60 60
0.9858 -0.0000 1.8402 60 60 60
0.1917 -3.8877 -0.0098 60 60 60
-2.2017 1.7686 0.4936 60 60 60
0.9858 -0.0000 1.8402 60 60 60
0.3184 -0.3022 1.5090 60 60 60
4.4590 3.1524 -0.0415 60 60 60
1.1345 5.0937 -0.1425 60 60 60
2.2075 9.6712 1.3575 60 60 60
1.4106 8.5669 -0.1881 60 60 60
0.9858 -0.0000 1.8402 60 60 60
23.3406 15.2440 0.2215 60 60 60
0.9858 -0.0000 1.8402 60 60 60
-2.8259 1.8080 1.6292 60 60 60
1.3948 0.4715 1.4852 60 60 60
0.9858 -0.0000 1.8402 60 60 60
-2.1710 -4.3643 1.9732 60 60 60
3.4656 8.8191 1.9648 60 60 60
-0.4327 1.9911 0.6297 60 60 60
-3.4246 -4.0887 0.0182 60 60 60
0.9858 -0.0000 1.8402 60 60 60
-4.6559 1.6334 0.4401 60 60 60
0.9858 -0.0000 1.8402 60 60 60
-16.8982 1.0995 -0.2568 60 60 60
-1.4399 1.9891 2.2526 60 60 60
1.1891 3.3897 -0.0695 60 60 60
-2.2676 1.8257 1.0282 60 60 60
0.3897 0.4493 1.5008 60 60 60
0.9502 3.2289 -0.0624 60 60 60
5.6341 0.2763 0.0242 60 60 60
-5.8942 -6.8694 0.5462 60 60 60
1.4889 -0.4112 1.5209 60 60 60
-6.6964 1.4383 2.2000 60 60 60
5.0115 9.1331 3.3188 60 60 60
-3.2400 -21.6176 1.4590 60 60 60
5.0225 -2.0282 -0.0263 60 60 60
0.9858 -0.0000 1.8402 60 60 60
0.9858 -0.0000 1.8402 60 60 60
9.2411 7.4310 0.9608 60 60 60
0.1009 -3.2221 0.0012 60 60 60
0.4022 -0.1951 1.5283 60 60 60
0.9858 -0.0000 1.8402 60 60 60
1.4810 -0.5014 1.4965 60 60 60
0.1399 2.0888 1.6227 60 60 60
9.1878 -7.6603 0.1194 60 60 60
0.3235 -0.1648 1.5150 60 60 60
-1.6630 -2.8584 0.0227 60 60 60
-0.0625 -7.7920 0.3833 60 60 60
-8.3226 -11.8296 2.2355 60 60 60
-4.1084 -0.6560 1.5958 60 60 60
1.6565 -0.3480 1.4423 60 60 60
-0.4052 1.9819 0.7103 60 60 60
0.9858 -0.0000 1.8402 60 60 60
-9.2290 -11.8387 3.0086 60 60 60
0.4090 8.2589 3.0573 60 60 60
-3.3010 -0.3360 1.1305 60 60 60
2.3846 -4.0153 1.8622 60 60 60
1.4491 -7.3787 0.5794 60 60 60
-0.2021 2.0372 0.6624 60 60 60
0.1753 0.4919 1.4639 60 60 60
-1.9871 -4.5632 -0.0047 60 60 60
1.5278 -0.0080 1.5190 60 60 60
0.5608 2.1151 0.8494 60 60 60
-8.9523 -11.7070 4.4348 60 60 60
1.9670 3.8381 -0.0790 60 60 60
2.8430 3.0570 -0.0549 60 60 60
0.1110 2.0738 1.0727 60 60 60
-1.4417 2.6029 2.2940 60 60 60
0.3027 -10.3572 3.3011 60 60 60
2.0335 -7.2402 0.5648 60 60 60
5.0157 3.6398 -0.0500 60 60 60
0.0589 -10.3804 3.3184 60 60 60
0.1105 1.9135 2.1834 60 60 60
3.9398 8.8479 1.2943 60 60 60
0.6188 0.4881 1.5022 60 60 60
-0.3201 -4.0771 -0.0107 60 60 60
9.1444 -5.3056 0.0685 60 60 60
-1.5799 4.0614 2.5354 60 60 60
0.9858 -0.0000 1.8402 60 60 60
-1.4291 1.9200 1.1565 60 60 60
1.5219 -0.0205 1.4875 60 60 60
-0.4201 -3.0748 0.0111 60 60 60
-2.6353 -1.3579 0.8103 60 60 60
1.4891 -3.5874 -0.0238 60 60 60
-0.0205 8.0844 1.1505 60 60 60
0.9858 -0.0000 1.8402 60 60 60
-0.6581 -2.7875 0.0093 60 60 60
-0.3493 -7.8307 0.5730 60 60 60
6.2880 -3.1454 -0.0493 60 60 60
-3.7464 -5.3453 0.0095 60 60 60
-0.4889 -2.8636 0.0074 60 60 60
0.2149 0.0181 1.5795 60 60 60
-4.4417 -3.8432 0.0241 60 60 60
3.4248 -9.9174 1.4601 60 60 60
-10.1563 -4.4027 1.2270 60 60 60
7.2309 -5.0038 0.0148 60 60 60
-1.1281 -4.2917 0.0674 60 60 60
0.4979 -0.0086 1.5950 60 60 60
0.1095 0.0907 1.5424 60 60 60
2.4826 -7.1048 0.5528 60 60 60
0.9858 -0.0000 1.8402 60 60 60
0.6222 2.1426 1.3492 60 60 60
2.7747 8.7603 3.2528 60 60 60
-3.2315 1.8324 2.8033 60 60 60
1.5306 -0.0733 1.4970 60 60 60
2.0117 5.7433 -0.1673 60 60 60
4.6430 1.4360 0.0015 60 60 60
0.4057 2.1070 1.2486 60 60 60
2.8349 -4.1219 0.6648 60 60 60
-1.3454 2.1424 0.8957 60 60 60
0.9858 -0.0000 1.8402 60 60 60
-1.9274 -4.3370 1.9620 60 60 60
1.9958 8.6437 3.4601 60 60 60
1.4805 8.4384 2.6321 60 60 60
-0.6129 2.3854 0.4146 60 60 60
-1.3852 2.7244 1.7896 60 60 60
2.1445 -3.3631 -0.0283 60 60 60
0.5164 2.1445 1.2948 60 60 60
1.4591 0.2503 1.4932 60 60 60
0.9858 -0.0000 1.8402 60 60 60
5.3380 -0.2805 0.0198 60 60 60
5.9729 -0.3543 0.0219 60 60 60
0.3653 0.3996 1.5063 60 60 60
-6.6324 -4.2033 1.9779 60 60 60
0.5018 -0.1172 1.5886 60 60 60
0.9858 -0.0000 1.8402 60 60 60
-0.8104 2.2456 0.5061 60 60 60
0.7064 -3.6982 -0.0221 60 60 60
-1.3433 2.1364 0.8169 60 60 60
-0.2366 2.0871 2.1295 60 60 60
-0.8930 2.5545 0.7912 60 60 60
-0.8394 8.1537 3.1268 60 60 60
-2.0638 -12.4165 1.0495 60 60 60
0.4200 0.2473 1.5278 60 60 60
-1.5241 3.4727 1.1627 60 60 60
-2.5620 -0.5472 0.7147 60 60 60
2.9030 5.8346 -0.1568 60 60 60
-2.4900 -10.9394 4.1379 60 60 60
2.9109 9.8298 2.0134 60 60 60
5.4941 1.3417 0.0192 60 60 60
0.5685 -10.3689 2.3128 60 60 60
-13.3016 2.1025 -0.1956 60 60 60
-1.2773 2.3272 0.7830 60 60 60
1.4571 0.5031 1.4884 60 60 60
-2.5477 1.8036 1.0766 60 60 60
2.9408 2.9773 -0.0533 60 60 60
4.5703 8.9284 0.5744 60 60 60
-6.9526 1.2016 -0.0659 60 60 60
0.5790 0.4498 1.5070 60 60 60
1.7894 9.5501 0.2551 60 60 60
-1.9116 -5.8476 0.0925 60 60 60
1.3375 -0.4181 1.4918 60 60 60
1.1466 -3.8750 -0.0214 60 60 60
-2.5178 1.8953 2.4770 60 60 60
1.5634 -10.1039 3.6900 60 60 60
5.1442 9.1482 3.3238 60 60 60
5.0496 8.9676 0.0551 60 60 60
-0.2643 -4.1556 0.7513 60 60 60
1.5699 0.3111 1.4745 60 60 60
-2.5950 -0.9805 0.9494 60 60 60
2.0933 9.6933 2.2734 60 60 60
-0.5402 -10.6876 1.3748 60 60 60
0.2291 2.1393 2.0407 60 60 60
2.0383 -7.2490 0.3855 60 60 60
0.9858 -0.0000 1.8402 60 60 60
7.5563 9.5207 3.1872 60 60 60
-3.1729 -1.0399 1.1250 60 60 60
1.4309 0.4560 1.4760 60 60 60
0.9858 -0.0000 1.8402 60 60 60
0.2566 2.0673 0.7240 60 60 60
7.1778 9.4127 2.1074 60 60 60
-0.0103 8.0956 1.3397 60 60 60
7.1213 9.3336 0.8009 60 60 60
5.2119 1.3154 0.0085 60 60 60
5.3108 -10.3982 0.0194 60 60 60
-4.8992 -34.5995 8.6346 60 60 60
0.1374 0.1066 1.5060 60 60 60
1.4616 4.6162 -0.1103 60 60 60
0.3219 8.1955 2.2793 60 60 60
0.1756 8.1218 1.3308 60 60 60
0.6007 -3.6840 -0.0135 60 60 60
-12.3777 -6.9565 0.6834 60 60 60
0.2132 2.1016 1.7778 60 60 60
-5.9792 1.4516 1.1712 60 60 60
0.7667 -10.4128 1.0899 60 60 60
0.1419 -0.0039 1.5979 60 60 60
3.5348 6.0260 -0.1465 60 60 60
-0.4525 -2.8714 0.0108 60 60 60
-1.7145 -3.4791 0.0133 60 60 60
-2.7453 -0.7958 1.0212 60 60 60
0.9858 -0.0000 1.8402 60 60 60
0.4313 2.0940 1.4125 60 60 60
10.9875 10.2604 3.7542 60 60 60
0.9858 -0.0000 1.8402 60 60 60
-0.1476 2.0656 1.3430 60 60 60
2.8902 3.0137 -0.0518 60 60 60
-4.7977 -4.6845 0.3415 60 60 60
3.8686 -9.7500 3.3455 60 60 60
0.9858 -0.0000 1.8402 60 60 60
-1.9259 1.8640 1.1676 60 60 60
1.0730 -10.2179 3.0013 60 60 60
-3.4909 1.7684 2.0526 60 60 60
2.9826 -9.9238 2.6624 60 60 60
6.5400 4.0182 -0.0458 60 60 60
-3.4596 1.8053 2.7312 60 60 60
3.1880 7.7985 -0.1651 60 60 60
1.4809 9.5169 0.7319 60 60 60
-2.8090 -1.4249 0.9599 60 60 60
0.3977 0.3549 1.5104 60 60 60
-1.3267 2.3001 1.2647 60 60 60
2.8159 9.7902 1.5533 60 60 60
2.3823 -3.7450 -0.0329 60 60 60
3.1643 -9.8965 2.8943 60 60 60
0.4497 2.1321 1.6148 60 60 60
3.8503 8.8939 2.3879 60 60 60
5.3339 -3.8873 -0.0658 60 60 60
1.2630 9.4580 0.0715 60 60 60
2.7990 8.7435 2.8271 60 60 60
-6.5669 -4.1498 0.7679 60 60 60
5.6284 -0.0532 0.0280 60 60 60
0.3080 0.2613 1.5148 60 60 60
-1.3984 2.6404 1.7098 60 60 60
4.1043 -5.4204 0.7963 60 60 60
1.8627 9.6542 2.2811 60 60 60
-8.3377 -11.7747 0.4855 60 60 60
4.4509 -1.9544 -0.0206 60 60 60
-3.6793 0.0988 1.2939 60 60 60
3.2540 -4.4178 1.8373 60 60 60
0.9858 -0.0000 1.8402 60 60 60
-1.4382 3.0650 2.3277 60 60 60
-4.9983 -4.7439 1.2133 60 60 60
-3.6265 1.6754 0.2974 60 60 60
1.5046 -0.4087 1.5341 60 60 60
0.9858 -0.0000 1.8402 60 60 60
1.5595 0.0049 1.5181 60 60 60
-1.3425 2.1595 0.8115 60 60 60
11.7087 -19.5347 0.7669 60 60 60
4.0712 -5.7427 0.7595 60 60 60
0.2773 0.0239 1.5245 60 60 60
-1.4777 1.8867 0.5991 60 60 60
0.9858 -0.0000 1.8402 60 60 60
3.6872 8.8721 2.6072 60 60 60
0.2164 8.1660 2.0908 60 60 60
0.9858 -0.0000 1.8402 60 60 60
0.1145 2.1044 1.3490 60 60 60
0.3983 2.1198 1.4071 60 60 60
-1.6143 1.8652 0.8157 60 60 60
-1.6909 1.8442 0.6315 60 60 60
-89.3513 -1.1165 1.8039 60 60 60
-3.5456 1.6918 0.9184 60 60 60
0.9858 -0.0000 1.8402 60 60 60
1.4373 -0.4322 1.4787 60 60 60
5.4455 -1.7067 -0.0127 60 60 60
1.9692 -3.4303 -0.0240 60 60 60
0.4830 0.4987 1.4946 60 60 60
0.2121 -0.0435 1.5780 60 60 60
3.5857 8.9183 3.4956 60 60 60
-29.9492 -20.7738 3.2094 60 60 60
-2.1082 1.8201 0.7903 60 60 60
1.8792 -4.2983 0.5211 60 60 60
0.9858 -0.0000 1.8402 60 60 60
0.1357 -4.1276 1.9651 60 60 60
5.4411 2.7496 -0.0139 60 60 60
-1.2453 -4.2104 0.8054 60 60 60
-2.1355 1.7785 0.5122 60 60 60
12.3200 8.6802 0.0032 60 60 60
-0.1620 2.0343 1.0557 60 60 60
-9.8357 -4.7895 1.2246 60 60 60
4.2910 -4.9975 0.0897 60 60 60
-31.9517 -21.3799 7.9206 60 60 60
0.3795 2.1392 1.4030 60 60 60
-1.8317 -10.8872 0.8884 60 60 60
-5.0554 1.5497 1.1052 60 60 60
6.0206 -3.7576 -0.0687 60 60 60
0.9858 -0.0000 1.8402 60 60 60
1.5074 -0.0925 1.4920 60 60 60
0.8804 2.3959 0.9164 60 60 60
-1.5307 3.6012 1.0379 60 60 60
3.4130 -9.8285 3.6030 60 60 60
-3.1169 -12.2813 3.2040 60 60 60
-0.0698 0.1397 1.4802 60 60 60
-5.1637 -4.7192 1.9305 60 60 60
1.2895 -0.4682 1.4877 60 60 60
3.2435 -9.9237 1.4693 60 60 60
-14.5831 -12.6003 4.8784 60 60 60
-0.4049 2.0061 0.7004 60 60 60
0.0853 0.3316 1.4885 60 60 60
5.8870 2.7476 -0.0108 60 60 60
4.3726 2.1363 -0.0125 60 60 60
8.1985 -3.9939 -0.0744 60 60 60
-2.6691 -2.6066 0.0308 60 60 60
0.1200 8.1062 1.1436 60 60 60
3.5123 8.7743 1.1099 60 60 60
-1.4758 1.9493 1.8135 60 60 60
-4.6544 -0.2669 1.7060 60 60 60
0.9858 -0.0000 1.8402 60 60 60
5.3555 9.1464 2.6107 60 60 60
2.5752 8.7390 3.4666 60 60 60
-29.8551 3.5274 -0.3350 60 60 60
5.5417 1.1267 0.0195 60 60 60
-4.8723 0.0576 1.2917 60 60 60
0.7237 2.0958 0.6106 60 60 60
-8.8795 -11.7286 3.6971 60 60 60
8.3866 9.5922 2.0916 60 60 60
-1.2636 3.6205 0.7404 60 60 60
0.9858 -0.0000 1.8402 60 60 60
9.2439 10.0848 3.6234 60 60 60
0.0968 0.0721 1.5842 60 60 60
5.6118 -0.4917 0.0242 60 60 60
2.3506 -4.1488 0.0451 60 60 60
-10.6814 -5.0145 2.3650 60 60 60
-30.1444 5.3942 -0.3804 60 60 60
0.3026 2.1197 1.7742 60 60 60
2.4426 -3.9216 1.4677 60 60 60
0.9858 -0.0000 1.8402 60 60 60
0.9858 -0.0000 1.8402 60 60 60
6.8041 -5.4975 0.0334 60 60 60
1.3014 0.4717 1.5034 60 60 60
1.4778 0.2099 1.4923 60 60 60
1.5257 -0.0209 1.5200 60 60 60
2.3896 -10.0494 2.2185 60 60 60
3.1721 -9.8578 3.3667 60 60 60
-2.9242 1.8567 2.5364 60 60 60
1.4435 -4.0566 -0.0198 60 60 60
0.5140 2.6352 1.5573 60 60 60
6.2752 4.5810 -0.0647 60 60 60
0.9858 -0.0000 1.8402 60 60 60
-1.1110 -4.1961 0.1033 60 60 60
6.1770 9.1314 1.8714 60 60 60
0.2305 -0.1788 1.5140 60 60 60
0.1460 0.1495 1.5065 60 60 60
-2.1342 -4.9831 -0.0051 60 60 60
-2.5174 -0.7892 0.8924 60 60 60
0.1816 -4.1491 1.9632 60 60 60
2.7461 -0.2172 1.0011 60 60 60
-4.7199 -4.5582 0.0133 60 60 60
0.9858 -0.0000 1.8402 60 60 60
0.9858 -0.0000 1.8402 60 60 60
0.8497 2.4496 1.3915 60 60 60
2.2997 3.6754 -0.0710 60 60 60
21.6227 -20.3491 0.8241 60 60 60
0.2372 3.6625 -0.0919 60 60 60
-1.1283 2.7477 0.7849 60 60 60
5.3295 0.4413 0.0210 60 60 60
-2.4363 -7.1363 0.1072 60 60 60
-9.9707 -12.0527 1.1727 60 60 60
8.5778 9.6779 2.6643 60 60 60
1.8915 9.6435 1.8272 60 60 60
-2.5387 1.8602 1.9162 60 60 60
1.8200 4.4885 -0.0987 60 60 60
1.0659 9.5284 2.0865 60 60 60
0.9858 -0.0000 1.8402 60 60 60
5.4991 9.1269 1.8953 60 60 60
-6.6700 -9.4297 0.4631 60 60 60
10.8081 9.9316 0.7621 60 60 60
-0.3400 -3.5467 -0.0001 60 60 60
-2.9866 -4.4765 0.0045 60 60 60
-5.1031 -4.7179 1.3903 60 60 60
-2.9034 1.8273 1.9258 60 60 60
0.6772 2.1580 1.2367 60 60 60
-4.7046 1.6648 2.3861 60 60 60
2.9773 -9.9334 2.4268 60 60 60
12.0620 -6.3100 0.1124 60 60 60
5.2587 9.1530 3.0879 60 60 60
0.3857 0.3085 1.5173 60 60 60
-1.3904 2.5668 1.6320 60 60 60
0.9858 -0.0000 1.8402 60 60 60
-6.6920 -11.5394 1.5144 60 60 60
-0.0656 8.1907 3.0766 60 60 60
0.9858 -0.0000 1.8402 60 60 60
8.8009 -7.7368 0.1638 60 60 60
8.7377 5.4861 -0.0744 60 60 60
9.1843 9.9207 3.2950 60 60 60
-2.1865 -2.6969 0.0353 60 60 60
-4.0471 -4.5798 0.4566 60 60 60
2.7060 8.7359 3.0385 60 60 60
0.3885 3.6686 -0.0895 60 60 60
0.9858 -0.0000 1.8402 60 60 60
0.9858 -0.0000 1.8402 60 60 60
32.6340 25.4656 1.3958 60 60 60
0.3890 0.4393 1.5035 60 60 60
-3.3875 0.1854 1.1198 60 60 60
-1.6359 1.9811 2.3542 60 60 60
0.4013 -0.2139 1.5243 60 60 60
5.8665 1.2936 0.0175 60 60 60
-0.7839 -2.9305 0.0097 60 60 60
1.3660 4.0386 -0.0892 60 60 60
0.9858 -0.0000 1.8402 60 60 60
32.4532 24.7288 1.3880 60 60 60
6.3329 -5.0562 -0.0014 60 60 60
-1.2280 2.0299 2.4460 60 60 60
-1.1725 1.9902 1.8091 60 60 60
0.1455 0.0768 1.5104 60 60 60
0.9858 -0.0000 1.8402 60 60 60
6.5011 8.1663 -0.0181 60 60 60
-1.3010 8.0243 2.3598 60 60 60
-1.4360 3.0108 2.6004 60 60 60
5.7909 1.6759 0.0102 60 60 60
1.2164 0.5105 1.4950 60 60 60
0.9858 -0.0000 1.8402 60 60 60
4.8809 -1.5705 -0.0169 60 60 60
2.9121 3.6066 -0.0769 60 60 60
-2.6355 1.8711 2.2998 60 60 60
1.5461 -0.2032 1.4884 60 60 60
0.2940 -0.4195 1.4941 60 60 60
0.6826 2.2545 1.4873 60 60 60
-2.5620 1.8072 0.9769 60 60 60
0.9858 -0.0000 1.8402 60 60 60
1.8734 0.3617 1.3645 60 60 60
-0.0911 2.0649 0.7391 60 60 60
4.8747 2.3481 -0.0125 60 60 60
5.0313 0.8538 0.0089 60 60 60
0.1689 -0.3159 1.4935 60 60 60
-0.4791 8.0867 2.3160 60 60 60
0.3362 8.1711 1.7041 60 60 60
1.7419 -7.3006 0.5745 60 60 60
0.9858 -0.0000 1.8402 60 60 60
4.4447 7.4791 -0.0575 60 60 60
-0.2899 -3.3406 -0.0010 60 60 60
1.8586 -3.2727 -0.0279 60 60 60
-1.4093 1.9115 1.3094 60 60 60
0.9858 -0.0000 1.8402 60 60 60
-4.5660 1.7040 2.7864 60 60 60
5.4029 -2.8396 -0.0355 60 60 60
-0.3537 -7.8793 0.3724 60 60 60
0.9858 -0.0000 1.8402 60 60 60
-0.1603 2.1088 0.7074 60 60 60
1.4698 -0.2093 1.4955 60 60 60
-9.2259 -11.7512 4.4774 60 60 60
8.9246 -5.5668 0.0832 60 60 60
-1.4086 1.9499 1.5244 60 60 60
1.5808 -0.1463 1.4776 60 60 60
6.0416 3.6647 -0.0358 60 60 60
-1.1841 2.0602 2.4421 60 60 60
4.6176 -2.2199 -0.0270 60 60 60
0.9858 -0.0000 1.8402 60 60 60
-1.4850 3.6885 2.6994 60 60 60
-3.1188 1.7764 1.6190 60 60 60
-1.8293 1.9003 1.7389 60 60 60
2.4609 3.5901 -0.0701 60 60 60
0.6099 -0.4860 1.4966 60 60 60
1.8846 0.3724 1.3575 60 60 60
-0.2732 -4.3765 -0.0114 60 60 60
0.8396 2.1585 0.7691 60 60 60
-3.5059 1.7875 2.5072 60 60 60
6.4757 5.8562 -0.1159 60 60 60
0.5145 9.3899 0.7917 60 60 60
-5.2392 -7.1418 0.1021 60 60 60
1.4201 0.3003 1.5003 60 60 60
7.2424 -13.6285 0.1059 60 60 60
0.5195 0.0024 1.6193 60 60 60
1.7129 -0.2207 1.4375 60 60 60
1.6043 -0.0025 1.5298 60 60 60
3.0838 -4.3100 -0.0318 60 60 60
0.2699 -0.4800 1.4702 60 60 60
3.1830 -9.3340 -0.1030 60 60 60
-7.7567 -7.2607 0.0918 60 60 60
10.3833 -6.1062 0.0697 60 60 60
-0.9221 8.1819 3.5417 60 60 60
-3.1632 -1.0619 1.1253 60 60 60
7.6930 9.5116 1.5583 60 60 60
4.4080 4.5090 -0.0879 60 60 60
-1.6923 1.8861 1.0393 60 60 60
2.1231 -10.0643 2.9419 60 60 60
3.3190 9.8374 0.8167 60 60 60
3.6960 3.6441 -0.0680 60 60 60
4.4916 -5.1890 1.3695 60 60 60
-3.8595 1.7703 2.6773 60 60 60
0.9858 -0.0000 1.8402 60 60 60
10.9556 7.2892 -0.0499 60 60 60
-1.4791 -4.2722 1.7114 60 60 60
5.6184 -0.4650 0.0227 60 60 60
-4.5293 -11.2603 0.8924 60 60 60
17.6908 -15.1981 0.4958 60 60 60
7.8326 4.9309 -0.0652 60 60 60
2.7517 9.7436 0.6295 60 60 60
-4.4311 -0.8575 1.7052 60 60 60
9.5416 -8.6460 0.8492 60 60 60
-6.7859 1.4614 2.5745 60 60 60
-0.6807 -4.2764 1.9045 60 60 60
0.4055 0.1788 1.5341 60 60 60
0.5557 -3.6963 -0.0196 60 60 60
0.9858 -0.0000 1.8402 60 60 60
0.9858 -0.0000 1.8402 60 60 60
0.9858 -0.0000 1.8402 60 60 60
-3.8717 -2.8442 0.0322 60 60 60
0.9858 -0.0000 1.8402 60 60 60
-0.5383 -10.6055 1.1290 60 60 60
5.7922 -5.4820 0.0382 60 60 60
1.8115 -3.9640 -0.0251 60 60 60
6.1074 3.4885 -0.0272 60 60 60
0.9149 3.4214 -0.0675 60 60 60
4.2244 4.0771 -0.0754 60 60 60
6.4145 -6.4677 0.9768 60 60 60
-0.1621 -3.1583 0.0067 60 60 60
-1.3463 1.9592 1.8119 60 60 60
-0.0711 2.0911 0.5227 60 60 60
0.9858 -0.0000 1.8402 60 60 60
0.9858 -0.0000 1.8402 60 60 60
3.2207 9.7985 0.3506 60 60 60
2.4094 8.6672 2.6203 60 60 60
-11.0836 -8.0577 0.0005 60 60 60
3.3684 -3.7727 -0.0452 60 60 60
4.4590 -4.9071 0.9593 60 60 60
-1.2432 2.5123 0.7409 60 60 60
3.1301 -4.3970 0.0594 60 60 60
0.9391 2.4101 0.9723 60 60 60
0.9858 -0.0000 1.8402 60 60 60
-9.0951 -29.4739 3.6734 60 60 60
-3.3032 -11.0512 2.5593 60 60 60
0.9858 -0.0000 1.8402 60 60 60
-0.2388 2.1080 2.3060 60 60 60
1.5295 0.0934 1.4966 60 60 60
1.5749 0.1190 1.4852 60 60 60
0.9858 -0.0000 1.8402 60 60 60
0.9858 -0.0000 1.8402 60 60 60
0.4762 0.3302 1.5124 60 60 60
5.7012 3.2180 -0.0256 60 60 60
1.4494 -0.2699 1.4911 60 60 60
8.5661 7.7343 -0.0183 60 60 60
1.5313 -4.0915 0.2934 60 60 60
16.7199 -36.9100 7.5793 60 60 60
0.9858 -0.0000 1.8402 60 60 60
-1.7554 1.8507 0.7838 60 60 60
7.5634 9.4462 1.5641 60 60 60
-3.2321 1.8225 2.4721 60 60 60
4.5277 8.8898 0.1251 60 60 60
0.5261 0.4346 1.5136 60 60 60
0.9858 -0.0000 1.8402 60 60 60
1.5776 0.1233 1.4832 60 60 60
4.4429 8.9068 0.5881 60 60 60
1.4555 -0.3037 1.5130 60 60 60
-1.9433 1.8584 1.3314 60 60 60
0.9858 -0.0000 1.8402 60 60 60
-1.5593 3.8261 0.9970 60 60 60
-3.7965 1.7279 1.9485 60 60 60
0.9858 -0.0000 1.8402 60 60 60
0.9858 -0.0000 1.8402 60 60 60
0.9858 -0.0000 1.8402 60 60 60
3.8831 -3.7491 -0.0520 60 60 60
-1.2061 -4.8028 0.0146 60 60 60
4.3137 -4.8371 0.2688 60 60 60
2.3945 -3.0227 -0.0313 60 60 60
5.0023 -0.9889 0.0033 60 60 60
3.2827 -9.8526 3.1251 60 60 60
0.2828 -0.4047 1.4938 60 60 60
0.1724 -3.4379 -0.0058 60 60 60
2.6765 0.5846 1.0013 60 60 60
-0.2908 8.1574 3.2839 60 60 60
-12.0211 -61.3647 3.7162 60 60 60
1.4681 -0.4388 1.5209 60 60 60
0.1340 -0.1215 1.5030 60 60 60
-1.2175 -3.9366 0.0590 60 60 60
0.5167 2.1298 1.0198 60 60 60
-0.0039 2.0923 1.4574 60 60 60
-2.8300 1.8162 1.8251 60 60 60
9.6288 -18.6617 1.8620 60 60 60
2.4447 -7.1374 0.1969 60 60 60
-4.3357 -4.6228 0.4126 60 60 60
1.6059 -4.0259 -0.0247 60 60 60
1.4940 0.3479 1.5205 60 60 60
11.1262 9.9961 1.0695 60 60 60
3.2971 -10.0938 -0.0041 60 60 60
-1.8975 1.9576 2.5569 60 60 60
0.9789 3.6302 -0.0783 60 60 60
0.4807 -0.3288 1.5123 60 60 60
0.9858 -0.0000 1.8402 60 60 60
0.3392 -4.8273 0.2097 60 60 60
0.4480 0.2563 1.5207 60 60 60
0.9858 -0.0000 1.8402 60 60 60
0.9858 -0.0000 1.8402 60 60 60
5.2447 -3.1437 -0.0416 60 60 60
6.6371 3.7912 -0.0395 60 60 60
0.9858 -0.0000 1.8402 60 60 60
-4.5459 -11.3129 1.1817 60 60 60
-1.2662 2.1778 0.6591 60 60 60
6.3572 9.1308 1.3726 60 60 60
3.9157 -4.7304 0.0800 60 60 60
-2.5294 -0.9410 0.8776 60 60 60
-1.1858 1.9380 1.4703 60 60 60
0.9858 -0.0000 1.8402 60 60 60
0.1708 -0.4821 1.4611 60 60 60
0.9858 -0.0000 1.8402 60 60 60
-3.1175 1.7094 0.5521 60 60 60
0.5282 8.1747 0.9293 60 60 60
-0.1079 -10.3967 3.8321 60 60 60
1.5759 -0.1120 1.4845 60 60 60
-0.2163 2.1177 1.9588 60 60 60
1.4009 -0.5281 1.4762 60 60 60
1.1958 9.4305 -0.1477 60 60 60
0.9858 -0.0000 1.8402 60 60 60
0.2543 2.0473 1.0361 60 60 60
-3.4978 -2.6222 0.0378 60 60 60
-2.9845 1.8684 2.8647 60 60 60
7.5633 9.4889 2.3713 60 60 60
0.9858 -0.0000 1.8402 60 60 60
-0.0142 2.0353 1.0729 60 60 60
1.6519 0.3437 1.4481 60 60 60
21.3778 -19.3235 4.7738 60 60 60
4.9718 5.4859 -0.1172 60 60 60
1.3495 0.4155 1.5088 60 60 60
0.7712 -3.6957 -0.0224 60 60 60
3.4216 9.2632 1.0843 60 60 60
0.2710 -10.3609 0.6282 60 60 60
0.0580 1.8345 2.2281 60 60 60
-2.0621 1.9418 2.5859 60 60 60
4.1044 8.8696 1.0637 60 60 60
-1.4173 2.5112 1.7160 60 60 60
2.2701 -5.5101 0.2760 60 60 60
9.6475 -8.8969 3.1522 60 60 60
-2.6365 8.7289 2.4756 60 60 60
-3.2218 -0.8228 1.1279 60 60 60
5.6007 -5.8607 0.3753 60 60 60
0.9858 -0.0000 1.8402 60 60 60
-5.6192 -18.1861 2.0913 60 60 60
2.7143 0.4198 1.0029 60 60 60
-2.5618 1.8887 2.3872 60 60 60
4.7742 4.8019 -0.0906 60 60 60
-0.3600 2.6822 0.6673 60 60 60
1.5266 -0.1161 1.4951 60 60 60
-1.4223 3.5494 0.7404 60 60 60
-3.9530 -2.7419 0.0295 60 60 60
5.9176 6.5097 -0.1164 60 60 60
0.9858 -0.0000 1.8402 60 60 60
-2.1379 1.9225 2.1622 60 60 60
-1.0978 2.7728 0.7829 60 60 60
2.3420 -10.0402 2.4560 60 60 60
3.7173 -4.6939 1.9530 60 60 60
0.2097 2.1534 2.0430 60 60 60
4.9629 2.9377 -0.0290 60 60 60
0.9858 -0.0000 1.8402 60 60 60
0.9858 -0.0000 1.8402 60 60 60
1.4831 -0.4629 1.5272 60 60 60
-0.8510 8.1591 2.9302 60 60 60
2.9753 -8.6971 -0.1820 60 60 60
4.5552 -4.8456 1.3790 60 60 60
1.5089 0.0114 1.4964 60 60 60
1.5131 -0.1566 1.4976 60 60 60
2.8103 6.5303 -0.1766 60 60 60
1.4776 0.5572 1.4619 60 60 60
2.3549 -3.4916 -0.0282 60 60 60
1.5343 0.3882 1.5304 60 60 60
-0.0125 2.0552 1.0070 60 60 60
0.0041 2.1866 0.7675 60 60 60
21.5958 -18.4198 5.3533 60 60 60
18.3005 11.2513 0.1063 60 60 60
0.2535 0.2408 1.5168 60 60 60
5.0950 7.9869 -0.0264 60 60 60
0.5563 -3.9203 -0.0191 60 60 60
0.9858 -0.0000 1.8402 60 60 60
-0.4713 8.1446 3.4959 60 60 60
1.5242 -0.0111 1.5210 60 60 60
-7.1512 -11.5930 0.5305 60 60 60
-3.1489 -3.6987 0.0216 60 60 60
-10.8876 -4.2227 1.2036 60 60 60
0.2908 -0.1982 1.5160 60 60 60
1.6627 0.2952 1.4526 60 60 60
0.9858 -0.0000 1.8402 60 60 60
-0.0727 -0.1448 1.4780 60 60 60
0.9858 -0.0000 1.8402 60 60 60
-3.8892 0.4050 1.1513 60 60 60
-1.3834 1.9489 1.4538 60 60 60
-4.2513 -4.0326 0.0266 60 60 60
-0.8454 2.2426 0.5791 60 60 60
0.9858 -0.0000 1.8402 60 60 60
-87.6221 13.3163 -0.2788 60 60 60
1.7589 -10.1201 2.4842 60 60 60
0.9858 -0.0000 1.8402 60 60 60
7.9615 -8.3363 -0.0447 60 60 60
2.2525 -2.9004 -0.0297 60 60 60
1.3544 -0.5182 1.4776 60 60 60
2.7234 -4.5775 0.4561 60 60 60
-6.6364 1.4803 2.5610 60 60 60
-0.0698 -7.8002 0.1918 60 60 60
0.9858 -0.0000 1.8402 60 60 60
21.4081 -23.0811 2.9794 60 60 60
-21.4764 3.4811 -0.2908 60 60 60
0.9858 -0.0000 1.8402 60 60 60
-4.4657 -5.4953 0.0625 60 60 60
5.2046 2.3430 -0.0035 60 60 60
1.6361 -0.0682 1.4730 60 60 60
2.2657 3.9946 -0.0866 60 60 60
4.2964 -3.7970 -0.0485 60 60 60
0.4577 -0.2068 1.5352 60 60 60
0.2744 -4.4333 -0.0146 60 60 60
-1.5508 3.6943 2.1782 60 60 60
2.7320 4.4101 -0.0925 60 60 60
4.0793 -9.7824 1.9060 60 60 60
-1.5189 3.7952 1.7553 60 60 60
0.4867 8.1606 2.6516 60 60 60
6.6276 9.2744 3.1300 60 60 60
0.9858 -0.0000 1.8402 60 60 60
0.9858 -0.0000 1.8402 60 60 60
0.2955 0.4511 1.4897 60 60 60
-1.4310 2.6004 1.9598 60 60 60
1.3905 0.3965 1.4980 60 60 60
0.0699 8.0783 2.6666 60 60 60
1.4479 -0.2726 1.4912 60 60 60
0.9858 -0.0000 1.8402 60 60 60
0.3546 -3.4624 -0.0096 60 60 60
1.8510 0.4135 1.3657 60 60 60
14.6895 9.3821 0.0678 60 60 60
1.6620 0.0006 1.5394 60 60 60
0.0884 1.8542 2.2274 60 60 60
1.1331 0.4130 1.5721 60 60 60
3.8126 -4.7627 1.3065 60 60 60
6.7984 9.2296 1.5989 60 60 60
18.6989 -29.4416 6.5607 60 60 60
3.1024 -4.3285 1.5040 60 60 60
0.1070 2.7141 0.5475 60 60 60
3.2019 9.8679 1.7672 60 60 60
-3.2525 1.7856 1.9348 60 60 60
8.2427 9.5893 1.2533 60 60 60
-4.1385 -11.2963 1.1760 60 60 60
-1.1494 -4.3979 0.0272 60 60 60
3.2242 -3.2100 -0.0410 60 60 60
-6.9432 -18.4645 2.6190 60 60 60
-6.7988 -11.4142 4.4481 60 60 60
1.6789 9.5751 1.1648 60 60 60
0.9858 -0.0000 1.8402 60 60 60
-1.4425 2.0027 2.4798 60 60 60
3.0179 7.8929 -0.1676 60 60 60
0.9858 -0.0000 1.8402 60 60 60
3.6999 3.2064 -0.0537 60 60 60
7.6878 -5.7074 0.0552 60 60 60
-0.0368 -4.1345 1.3777 60 60 60
-2.4696 -1.2494 0.6768 60 60 60
0.9858 -0.0000 1.8402 60 60 60
-0.2455 -4.3743 -0.0089 60 60 60
-2.5167 -0.4587 0.8229 60 60 60
3.7755 3.1063 -0.0475 60 60 60
0.7183 2.1261 0.7863 60 60 60
0.9858 -0.0000 1.8402 60 60 60
0.4405 -5.7304 0.4832 60 60 60
-5.5536 1.5868 2.4627 60 60 60
8.9539 9.6667 1.5004 60 60 60
3.8186 -9.8984 0.4735 60 60 60
20.9720 -20.7333 6.2530 60 60 60
0.3008 -0.0040 1.5350 60 60 60
-1.4449 1.8835 0.6097 60 60 60
0.9858 -0.0000 1.8402 60 60 60
1.8202 9.6251 1.6059 60 60 60
0.1297 0.0837 1.5494 60 60 60
2.6040 9.7369 1.1033 60 60 60
0.9858 -0.0000 1.8402 60 60 60
-0.0815 -0.2662 1.4657 60 60 60
0.9858 -0.0000 1.8402 60 60 60
1.5083 0.1459 1.4856 60 60 60
-2.6153 1.8472 1.9183 60 60 60
-2.7711 1.8067 1.5341 60 60 60
0.9858 -0.0000 1.8402 60 60 60
0.9858 -0.0000 1.8402 60 60 60
5.4298 -5.6408 0.0786 60 60 60
1.7137 0.1870 1.4430 60 60 60
2.5875 4.1358 -0.0874 60 60 60
6.1756 1.7377 0.0131 60 60 60
1.5162 0.1342 1.5003 60 60 60
0.1437 2.1013 1.3509 60 60 60
4.5215 -4.6485 2.3442 60 60 60
-3.8064 -1.5785 1.2324 60 60 60
0.6353 -4.7105 0.3668 60 60 60
5.4708 9.1870 3.0952 60 60 60
-1.0074 2.0577 2.4828 60 60 60
-6.5573 -11.4331 3.4373 60 60 60
1.6774 0.2729 1.4492 60 60 60
0.9858 -0.0000 1.8402 60 60 60
0.4269 -0.2603 1.5259 60 60 60
5.0278 1.9474 -0.0016 60 60 60
-31.6408 -19.0207 3.2929 60 60 60
0.9858 -0.0000 1.8402 60 60 60
-6.9150 -6.4801 0.0263 60 60 60
2.3957 -10.0289 2.4533 60 60 60
-1.3234 1.8972 0.6416 60 60 60
0.9858 -0.0000 1.8402 60 60 60
-7.6788 -5.6533 0.2851 60 60 60
7.3868 9.4222 1.5722 60 60 60
1.8025 9.5053 -0.1997 60 60 60
0.2361 -3.0594 0.0039 60 60 60
0.4673 0.3494 1.5210 60 60 60
-1.2373 7.9322 2.1583 60 60 60
-17.4497 -13.1801 3.1813 60 60 60
2.3509 -4.0032 0.7573 60 60 60
1.5769 0.0725 1.4878 60 60 60
1.7853 -6.3699 0.2580 60 60 60
-15.2888 -12.8235 3.5243 60 60 60
-2.5584 -1.1023 0.8558 60 60 60
-4.7858 1.6463 2.1122 60 60 60
-2.6863 1.8109 1.3462 60 60 60
2.7151 -3.8505 -0.0332 60 60 60
-0.2269 2.0663 1.3375 60 60 60
6.0952 3.5238 -0.0290 60 60 60
4.8235 -5.7075 0.6735 60 60 60
4.1775 -9.8447 0.4506 60 60 60
-11.8142 -4.7352 3.3774 60 60 60
0.9858 -0.0000 1.8402 60 60 60
-3.6872 -3.8130 0.0267 60 60 60
1.5822 -0.0237 1.5230 60 60 60
8.8593 5.1689 -0.0683 60 60 60
-1.7198 1.9749 2.4456 60 60 60
9.3412 7.3790 0.4308 60 60 60
-3.1563 1.7352 0.8724 60 60 60
-9.1584 -3.7373 0.7851 60 60 60
-3.9984 -2.6560 0.0325 60 60 60
22.4759 -15.1538 4.4822 60 60 60
3.3715 9.6843 0.3539 60 60 60
2.4870 -9.9625 3.6377 60 60 60
-9.0495 -4.7881 0.7334 60 60 60
-2.4614 -1.0282 0.7051 60 60 60
8.1296 8.7925 -0.0646 60 60 60
-0.8505 2.5513 0.7173 60 60 60
1.5671 4.5910 -0.1106 60 60 60
-1.4593 1.9483 1.5951 60 60 60
-1.4373 2.9899 1.3312 60 60 60
-5.1598 1.6020 2.2773 60 60 60
0.5402 9.4137 1.2294 60 60 60
0.9858 -0.0000 1.8402 60 60 60
-1.5478 3.7269 1.5486 60 60 60
0.7899 2.1717 1.2310 60 60 60
0.9858 -0.0000 1.8402 60 60 60
0.5642 0.5007 1.4993 60 60 60
7.8579 -7.3626 1.0289 60 60 60
-1.1442 1.9981 1.6045 60 60 60
-3.0964 1.8626 2.8888 60 60 60
0.3981 -0.1891 1.5275 60 60 60
2.2426 -7.1845 0.3818 60 60 60
-0.7979 -3.9406 -0.0036 60 60 60
-10.9634 -4.8944 2.6791 60 60 60
0.9858 -0.0000 1.8402 60 60 60
-8.0835 -3.6414 0.8808 60 60 60
-1.1876 3.4385 1.4769 60 60 60
1.1130 -3.6632 -0.0237 60 60 60
1.7586 4.8970 -0.1224 60 60 60
0.8214 2.1628 0.8901 60 60 60
1.2082 9.4461 0.0766 60 60 60
-0.6388 -2.9912 0.0116 60 60 60
-4.8078 -8.9789 0.3299 60 60 60
0.8578 3.8896 -0.0944 60 60 60
0.1848 0.3418 1.4972 60 60 60
6.0611 3.6340 -0.0363 60 60 60
-9.7917 -12.1165 0.7915 60 60 60
-0.6133 2.4837 0.4564 60 60 60
2.2391 -3.1059 -0.0300 60 60 60
4.2077 -5.9882 0.8757 60 60 60
8.2647 -6.4162 0.1109 60 60 60
-1.4603 1.9985 2.1072 60 60 60
-1.3295 2.3276 1.5718 60 60 60
-5.5405 1.5267 1.5228 60 60 60
8.6307 5.7520 -0.0800 60 60 60
-4.9272 0.9224 -0.0302 60 60 60
-1.1939 1.9657 1.1125 60 60 60
-8.1387 -11.6654 3.9672 60 60 60
-10.1554 -12.0116 2.3197 60 60 60
0.9858 -0.0000 1.8402 60 60 60
6.5445 9.2570 3.1257 60 60 60
-2.7425 -0.0153 0.9553 60 60 60
-0.2002 -4.9268 0.3011 60 60 60
0.3393 2.0860 1.3602 60 60 60
0.9858 -0.0000 1.8402 60 60 60
5.1135 2.5869 -0.0133 60 60 60
4.3383 -5.0818 1.5281 60 60 60
0.6687 -0.5043 1.5041 60 60 60
0.2150 0.0226 1.5795 60 60 60
0.6548 -4.1786 -0.0251 60 60 60
1.3526 0.4241 1.5038 60 60 60
5.8188 1.4969 0.0173 60 60 60
1.9677 -3.9098 -0.0257 60 60 60
0.9858 -0.0000 1.8402 60 60 60
-10.5382 -12.0247 3.1164 60 60 60
3.3384 2.8966 -0.0520 60 60 60
0.0193 2.0491 0.7645 60 60 60
4.8011 3.9655 -0.0606 60 60 60
1.1926 0.5187 1.5154 60 60 60
-0.6634 8.0857 2.5188 60 60 60
0.0182 8.1364 1.9092 60 60 60
4.8202 -1.7610 -0.0219 60 60 60
-34.4101 1.2095 2.6585 60 60 60
0.9858 -0.0000 1.8402 60 60 60
-3.2099 1.6921 0.5300 60 60 60
1.4429 0.4403 1.4960 60 60 60
-1.1796 2.0290 1.2480 60 60 60
2.2385 9.7074 1.8113 60 60 60
2.6011 -4.0180 1.9554 60 60 60
1.2037 -4.1527 0.4082 60 60 60
3.3657 -9.9237 1.4629 60 60 60
-1.1160 -3.5024 0.0099 60 60 60
-1.4604 3.2687 2.6383 60 60 60
0.9079 2.1516 0.6419 60 60 60
0.7036 2.1260 0.9660 60 60 60
1.7048 -0.2044 1.4440 60 60 60
10.3869 7.8658 2.8589 60 60 60
8.2852 9.5742 2.0927 60 60 60
-10.4200 -5.1445 2.6439 60 60 60
18.4536 -30.7065 5.0643 60 60 60
-0.5084 -4.1812 0.8466 60 60 60
0.4191 2.1562 1.2354 60 60 60
0.0365 2.0566 1.1295 60 60 60
-8.5613 -11.7491 3.3089 60 60 60
5.6152 0.5226 0.0252 60 60 60
-6.2762 -6.6907 0.0682 60 60 60
5.3134 7.7333 -0.0151 60 60 60
1.2763 9.4996 0.9677 60 60 60
-3.8281 1.6792 1.1134 60 60 60
2.4370 3.0907 -0.0525 60 60 60
-7.9060 -9.7486 0.3728 60 60 60
6.1091 1.9879 0.0108 60 60 60
3.4116 8.8884 3.4895 60 60 60
0.1821 0.3007 1.5029 60 60 60
0.9858 -0.0000 1.8402 60 60 60
0.5493 2.1261 1.1354 60 60 60
-17.5183 -13.0870 4.2488 60 60 60
0.6152 -6.0729 0.2445 60 60 60
-2.6157 -0.5551 0.9715 60 60 60
0.4250 -0.3938 1.5068 60 60 60
-6.9462 -11.6149 1.1892 60 60 60
-0.8582 2.2324 0.5796 60 60 60
-2.5642 -1.4463 0.6231 60 60 60
1.4506 4.3261 -0.1098 60 60 60
0.9858 -0.0000 1.8402 60 60 60
-3.3068 -2.2832 0.0303 60 60 60
0.2566 -4.8129 0.2149 60 60 60
0.4252 -0.4033 1.5040 60 60 60
2.3744 -3.4834 -0.0291 60 60 60
3.9864 8.0257 -0.1033 60 60 60
0.9858 -0.0000 1.8402 60 60 60
-0.2785 -2.9340 0.0097 60 60 60
-1.3546 2.4293 2.3525 60 60 60
6.0702 -5.6352 1.4113 60 60 60
0.1176 -4.7622 0.1055 60 60 60
11.5772 10.4981 3.8231 60 60 60
0.9858 -0.0000 1.8402 60 60 60
5.8177 -5.8904 1.2425 60 60 60
5.3900 -5.6576 0.0829 60 60 60
3.8381 -9.9923 0.2128 60 60 60
2.6893 0.4456 1.0118 60 60 60
-3.9773 1.6865 1.5869 60 60 60
5.0711 -4.5603 0.0179 60 60 60
3.5205 7.6046 -0.1612 60 60 60
-3.1475 -8.5344 0.6748 60 60 60
0.9858 -0.0000 1.8402 60 60 60
1.5147 -3.3703 -0.0207 60 60 60
0.9858 -0.0000 1.8402 60 60 60
0.4013 -10.4757 1.1013 60 60 60
-2.2091 1.8412 1.0367 60 60 60
0.9858 -0.0000 1.8402 60 60 60
-4.8572 1.5022 -0.0495 60 60 60
0.9858 -0.0000 1.8402 60 60 60
0.5319 -0.4410 1.5098 60 60 60
0.4400 2.1372 1.2958 60 60 60
-9.6800 -11.8358 4.1705 60 60 60
-1.3965 2.0123 2.4729 60 60 60
-12.4638 -12.3666 3.7080 60 60 60
0.7658 2.7212 0.4100 60 60 60
0.1486 -3.6483 -0.0069 60 60 60
1.2104 -0.5245 1.4851 60 60 60
1.6077 -0.2257 1.4703 60 60 60
-0.8965 3.6105 1.6534 60 60 60
5.3098 9.1965 3.5786 60 60 60
1.0445 8.4821 3.2585 60 60 60
0.0667 2.0897 1.4052 60 60 60
0.9858 -0.0000 1.8402 60 60 60
-5.5890 1.5466 1.9921 60 60 60
0.7450 9.4215 0.9995 60 60 60
4.9520 -1.2287 -0.0009 60 60 60
1.2334 -10.1869 2.5113 60 60 60
-0.3428 2.6863 0.6681 60 60 60
0.2652 2.2140 0.7195 60 60 60
3.6042 -6.5205 0.1975 60 60 60
0.9858 -0.0000 1.8402 60 60 60
-88.3513 9.2358 -0.2719 60 60 60
-2.7563 -0.7537 1.0213 60 60 60
-0.2537 8.1012 2.1122 60 60 60
5.2010 -3.2282 -0.0446 60 60 60
1.5568 0.3172 1.4796 60 60 60
-4.7184 1.5477 0.5765 60 60 60
-1.7933 1.9000 1.7393 60 60 60
-3.6954 1.7660 2.4138 60 60 60
0.9858 -0.0000 1.8402 60 60 60
3.9013 -3.7275 -0.0507 60 60 60
1.2215 0.4984 1.4999 60 60 60
0.9804 4.7425 -0.1262 60 60 60
-1.5851 -4.2818 1.7133 60 60 60
0.9858 -0.0000 1.8402 60 60 60
0.3260 2.0996 1.1929 60 60 60
5.0523 2.7525 -0.0228 60 60 60
5.0114 2.8297 -0.0239 60 60 60
0.6992 2.1358 1.1330 60 60 60
8.4674 -4.7447 0.0116 60 60 60
-1.4303 2.8640 1.6115 60 60 60
-3.9139 1.7483 2.3158 60 60 60
-1.5634 3.8733 1.3196 60 60 60
1.1700 3.3860 -0.0657 60 60 60
5.4853 -4.9007 0.0256 60 60 60
0.5830 9.4027 1.0083 60 60 60
-1.5351 3.5550 0.9404 60 60 60
0.2600 0.2804 1.5131 60 60 60
7.6484 9.5368 3.1922 60 60 60
0.9858 -0.0000 1.8402 60 60 60
-0.8112 -3.1427 0.0068 60 60 60
-0.1996 2.0598 1.6797 60 60 60
3.3004 -2.8359 -0.0374 60 60 60
-0.8353 2.0404 2.4499 60 60 60
0.9858 -0.0000 1.8402 60 60 60
3.6843 -9.7989 2.8737 60 60 60
0.2106 8.2058 2.8663 60 60 60
12.5488 7.9309 0.0139 60 60 60
0.7775 -3.1022 -0.0060 60 60 60
1.4433 -0.4071 1.5223 60 60 60
11.3284 10.0055 0.3815 60 60 60
-0.9201 -2.8521 0.0143 60 60 60
0.9858 -0.0000 1.8402 60 60 60
-34.8249 -21.7904 8.3648 60 60 60
-10.7543 -12.1096 3.1360 60 60 60
4.9359 -1.3277 -0.0063 60 60 60
0.9858 -0.0000 1.8402 60 60 60
0.9858 -0.0000 1.8402 60 60 60
0.3039 2.0729 0.6618 60 60 60
1.4892 5.9598 -0.1893 60 60 60
0.9858 -0.0000 1.8402 60 60 60
0.0518 1.8191 1.9844 60 60 60
-3.4641 -2.6708 0.0376 60 60 60
1.4879 0.1831 1.4917 60 60 60
3.4214 -4.1108 -0.0434 60 60 60
2.0202 9.6686 2.0473 60 60 60
-1.6779 -3.1577 0.0207 60 60 60
-2.9550 -0.6303 1.0831 60 60 60
8.0104 4.4609 -0.0533 60 60 60
0.9858 -0.0000 1.8402 60 60 60
0.8951 2.2912 1.3638 60 60 60
-4.4530 -6.5287 0.0689 60 60 60
0.3723 0.3902 1.5113 60 60 60
0.9858 -0.0000 1.8402 60 60 60
-1.4499 3.0618 1.2281 60 60 60
-3.9882 -2.6869 0.0299 60 60 60
-1.4737 3.4082 2.6591 60 60 60
5.8531 2.8048 -0.0085 60 60 60
0.9858 -0.0000 1.8402 60 60 60
2.4189 3.9192 -0.0858 60 60 60
-6.2198 -4.0129 0.0203 60 60 60
-4.9264 -0.0396 1.7007 60 60 60
1.2958 -0.4659 1.4864 60 60 60
2.7672 -9.9280 3.3840 60 60 60
3.4403 8.8346 2.3946 60 60 60
-0.0664 -0.1196 1.4814 60 60 60
-0.0835 -0.1962 1.4711 60 60 60
5.6934 -2.1931 -0.0303 60 60 60
-1.5408 3.8011 1.9685 60 60 60
0.2085 0.0887 1.5132 60 60 60
1.6021 0.4351 1.5137 60 60 60
-2.2860 -3.4265 0.0236 60 60 60
-2.2859 1.8179 1.2069 60 60 60
0.9858 -0.0000 1.8402 60 60 60
-0.0643 0.2820 1.4716 60 60 60
1.4648 -0.3383 1.5161 60 60 60
0.4613 2.7023 0.3337 60 60 60
0.9858 -0.0000 1.8402 60 60 60
0.9858 -0.0000 1.8402 60 60 60
-0.3928 -4.1462 1.6877 60 60 60
0.9858 -0.0000 1.8402 60 60 60
1.4686 5.4428 -0.1578 60 60 60
4.7159 -2.0155 -0.0251 60 60 60
-11.1181 -10.2968 0.5181 60 60 60
2.4131 -3.9557 1.7623 60 60 60
5.1089 -3.3954 -0.0504 60 60 60
0.2293 0.1300 1.5193 60 60 60
0.9858 -0.0000 1.8402 60 60 60
1.4348 -0.3059 1.5056 60 60 60
0.9858 -0.0000 1.8402 60 60 60
-2.5273 -0.9184 0.8800 60 60 60
0.9858 -0.0000 1.8402 60 60 60
1.9422 3.5905 -0.0700 60 60 60
0.9858 -0.0000 1.8402 60 60 60
0.1113 1.9636 1.8865 60 60 60
3.3505 4.9016 -0.1068 60 60 60
0.2346 2.0890 1.8296 60 60 60
0.5146 0.3787 1.5118 60 60 60
-13.0815 -12.3686 4.6566 60 60 60
7.0439 9.3097 1.0685 60 60 60
-0.5408 2.0422 0.5803 60 60 60
0.1457 -0.0087 1.5990 60 60 60
5.9844 -4.5132 -0.0171 60 60 60
14.4668 -11.7114 0.3455 60 60 60
15.4843 -42.0181 6.2365 60 60 60
1.6314 -0.3903 1.4442 60 60 60
1.4821 0.3529 1.5245 60 60 60
-6.2273 1.4210 1.3225 60 60 60
2.6630 9.7449 1.0993 60 60 60
0.9858 -0.0000 1.8402 60 60 60
9.5369 -8.6569 0.2776 60 60 60
1.5641 0.4187 1.5314 60 60 60
-2.7379 -1.0433 1.0064 60 60 60
6.4718 9.1349 0.8665 60 60 60
0.9858 -0.0000 1.8402 60 60 60
-22.8426 -4.7641 1.7953 60 60 60
19.8954 -28.8843 3.2913 60 60 60
0.9858 -0.0000 1.8402 60 60 60
0.9858 -0.0000 1.8402 60 60 60
0.9858 -0.0000 1.8402 60 60 60
-16.7951 2.8549 -0.2712 60 60 60
-2.0930 1.8486 1.1439 60 60 60
0.4088 -7.6374 0.7664 60 60 60
-4.5421 1.6868 2.3717 60 60 60
-1.1882 -4.1764 0.2239 60 60 60
0.2604 8.1294 1.1362 60 60 60
-6.2994 -7.9873 0.1245 60 60 60
-2.9589 -0.6548 1.0814 60 60 60
0.4303 -0.2981 1.5178 60 60 60
9.2844 9.7206 1.4853 60 60 60
-5.4863 0.8240 -0.0331 60 60 60
0.2336 -0.2054 1.5121 60 60 60
0.9858 -0.0000 1.8402 60 60 60
1.4995 -0.0137 1.5192 60 60 60
1.1104 4.1182 -0.1045 60 60 60
0.9858 -0.0000 1.8402 60 60 60
-4.9710 1.5775 1.6901 60 60 60
1.3392 0.4050 1.5003 60 60 60
-1.7444 1.9264 2.0501 60 60 60
-1.7460 8.0025 3.3856 60 60 60
0.9858 -0.0000 1.8402 60 60 60
1.8317 0.4167 1.3739 60 60 60
-4.4394 -1.0204 1.7026 60 60 60
-1.2941 2.0619 1.9519 60 60 60
-2.9360 1.7436 0.7029 60 60 60
5.0368 6.8833 -0.0342 60 60 60
4.8772 9.0244 1.9155 60 60 60
1.6663 -10.1872 1.3013 60 60 60
0.8371 2.2112 0.9892 60 60 60
-2.2849 1.8707 1.8214 60 60 60
1.4898 -0.2037 1.5024 60 60 60
-6.4337 1.4816 2.3642 60 60 60
0.9858 -0.0000 1.8402 60 60 60
-1.9979 -7.9379 0.1549 60 60 60
0.8946 -10.3451 1.3303 60 60 60
5.6249 8.9594 -0.0125 60 60 60
3.8296 8.8715 2.1699 60 60 60
-0.5463 2.6539 0.5680 60 60 60
2.4096 -4.0207 1.7622 60 60 60
-0.0366 -3.8560 -0.0068 60 60 60
0.9279 2.7254 1.3372 60 60 60
-7.7236 -5.3989 0.0624 60 60 60
1.4322 0.2971 1.4946 60 60 60
-1.3509 -10.8132 0.8833 60 60 60
-0.9030 2.2338 0.5680 60 60 60
3.2541 5.5633 -0.1339 60 60 60
4.3764 -4.9241 0.6801 60 60 60
-4.5155 -0.4837 1.7076 60 60 60
1.4619 0.5522 1.4695 60 60 60
4.5819 3.6187 -0.0600 60 60 60
0.9858 -0.0000 1.8402 60 60 60
4.7057 -2.6836 -0.0369 60 60 60
-3.9694 -8.7489 0.3947 60 60 60
2.5461 9.7602 2.0270 60 60 60
-0.9085 2.5317 0.6290 60 60 60
0.9858 -0.0000 1.8402 60 60 60
17.9292 -10.7042 1.0239 60 60 60
-1.4439 3.1380 2.7153 60 60 60
0.9858 -0.0000 1.8402 60 60 60
-4.4857 -3.7814 0.0263 60 60 60
0.9858 -0.0000 1.8402 60 60 60
0.2586 -3.9048 -0.0155 60 60 60
0.9858 -0.0000 1.8402 60 60 60
0.2812 -0.0198 1.5455 60 60 60
8.0106 9.6055 1.5439 60 60 60
2.4868 -3.9550 1.6605 60 60 60
9.0044 9.6149 0.0292 60 60 60
6.6603 9.3042 3.3920 60 60 60
3.8508 -4.8153 1.5628 60 60 60
0.6870 0.5227 1.5032 60 60 60
-0.1117 2.0580 1.5700 60 60 60
0.9858 -0.0000 1.8402 60 60 60
-2.4229 1.8112 1.0019 60 60 60
2.9116 -4.5115 0.4445 60 60 60
0.4976 0.4953 1.5005 60 60 60
1.6471 -4.0836 0.1733 60 60 60
0.9858 -0.0000 1.8402 60 60 60
0.9858 -0.0000 1.8402 60 60 60
-0.7561 -3.9703 -0.0105 60 60 60
-14.8137 -12.7520 3.4830 60 60 60
-8.8705 -5.4270 1.2322 60 60 60
0.7191 -4.1199 1.1611 60 60 60
-0.1724 -4.4041 -0.0170 60 60 60
0.9316 5.6140 -0.1838 60 60 60
1.6898 -0.2413 1.4463 60 60 60
0.9858 -0.0000 1.8402 60 60 60
0.2920 0.4042 1.5000 60 60 60
0.9858 -0.0000 1.8402 60 60 60
0.3496 2.1085 1.1913 60 60 60
-1.3031 1.9784 0.7853 60 60 60
-3.3254 1.7200 0.8411 60 60 60
8.7917 -5.7501 0.0891 60 60 60
0.9858 -0.0000 1.8402 60 60 60
-1.1801 2.2025 0.4198 60 60 60
-2.5299 -1.2492 0.7538 60 60 60
0.9212 8.2381 2.8326 60 60 60
-4.3128 -8.5448 0.1707 60 60 60
4.0076 8.8909 2.1652 60 60 60
-1.3450 2.3639 2.3456 60 60 60
9.0317 -20.1703 0.3923 60 60 60
1.6251 0.1485 1.4733 60 60 60
0.9858 -0.0000 1.8402 60 60 60
-1.4504 3.3111 2.3480 60 60 60
0.9858 -0.0000 1.8402 60 60 60
-16.5607 -12.9000 5.1752 60 60 60
-1.7803 1.9011 1.4250 60 60 60
1.5769 -0.0268 1.5258 60 60 60
0.9858 -0.0000 1.8402 60 60 60
-5.4811 1.5594 1.9895 60 60 60
11.7245 10.0541 -0.0053 60 60 60
0.3990 0.3361 1.5159 60 60 60
0.9858 -0.0000 1.8402 60 60 60
-1.5885 4.1160 2.4263 60 60 60
1.3474 -0.4292 1.5005 60 60 60
6.1545 3.3888 -0.0256 60 60 60
0.9858 -0.0000 1.8402 60 60 60
-4.1165 1.6014 0.4321 60 60 60
8.3518 -7.6883 1.7236 60 60 60
-2.2531 -8.3262 0.4989 60 60 60
0.5946 -10.3316 3.0375 60 60 60
-1.3298 2.2558 1.3480 60 60 60
0.5338 -3.9183 -0.0180 60 60 60
-1.5449 3.6849 1.6559 60 60 60
0.2752 0.0040 1.5433 60 60 60
0.9858 -0.0000 1.8402 60 60 60
3.3502 9.7387 1.7600 60 60 60
0.9858 -0.0000 1.8402 60 60 60
-1.2703 2.0220 0.8605 60 60 60
-5.4906 0.9744 -0.0408 60 60 60
2.7670 4.8039 -0.1041 60 60 60
1.5401 -0.0479 1.4927 60 60 60
-13.9149 -12.4934 4.7789 60 60 60
-0.2144 -7.8301 0.1880 60 60 60
7.1888 6.4470 -0.1254 60 60 60
0.1333 2.0791 0.7674 60 60 60
1.9896 -3.6483 -0.0238 60 60 60
1.6643 9.5619 0.9421 60 60 60
-4.8488 1.6840 2.9759 60 60 60
-2.5614 -12.8283 1.0347 60 60 60
9.7160 9.7783 1.1605 60 60 60
-1.5603 3.7833 1.4378 60 60 60
10.5962 -6.1657 0.0348 60 60 60
0.1643 -0.2652 1.4996 60 60 60
0.9858 -0.0000 1.8402 60 60 60
0.6584 2.1100 0.7935 60 60 60
0.2848 0.1782 1.5174 60 60 60
2.3662 -4.0283 1.9629 60 60 60
-1.4035 1.9035 0.7789 60 60 60
2.8822 -4.1874 0.2936 60 60 60
12.9846 10.2217 2.0507 60 60 60
0.2643 0.3366 1.5045 60 60 60
10.1138 9.8045 0.5071 60 60 60
1.5075 -0.3774 1.5226 60 60 60
-3.0204 -6.2667 0.0683 60 60 60
1.5302 -7.3504 0.2223 60 60 60
-9.9361 -11.9398 3.0666 60 60 60
2.8469 4.7618 -0.1045 60 60 60
1.0740 0.4759 1.5790 60 60 60
0.6299 8.7711 2.2927 60 60 60
-1.7251 -4.2602 -0.0047 60 60 60
3.5900 3.7708 -0.0780 60 60 60
4.1427 4.1711 -0.0790 60 60 60
-0.0267 2.1120 1.6750 60 60 60
-1.5601 1.9426 1.7401 60 60 60
1.2181 9.4895 0.9715 60 60 60
-4.6356 -23.9593 3.7522 60 60 60
-4.1259 -0.6293 1.5954 60 60 60
-13.8500 -12.8090 1.5742 60 60 60
2.4662 -3.9518 1.8579 60 60 60
-3.1252 -4.3733 0.0061 60 60 60
2.3204 -7.1650 0.2021 60 60 60
2.3631 -4.0042 0.3230 60 60 60
1.2359 0.4910 1.4992 60 60 60
0.9858 -0.0000 1.8402 60 60 60
-9.1833 -11.8826 1.9117 60 60 60
0.4651 0.3300 1.5259 60 60 60
0.9371 -4.0976 1.0569 60 60 60
31.8534 22.5204 2.2612 60 60 60
-0.2409 2.1749 2.3768 60 60 60
0.6231 2.0959 0.7996 60 60 60
-2.5226 -1.2917 0.7508 60 60 60
-8.3289 -11.8070 1.5344 60 60 60
1.5255 0.2759 1.4861 60 60 60
0.3784 0.4312 1.5022 60 60 60
5.6714 -5.8303 1.7796 60 60 60
0.7214 -7.5615 0.7650 60 60 60
0.6386 -3.4795 -0.0144 60 60 60
1.9803 -4.1475 -0.0124 60 60 60
0.4777 0.3131 1.5184 60 60 60
6.1684 -3.4579 -0.0615 60 60 60
1.9040 8.5980 2.8356 60 60 60
3.1730 -4.3848 1.8397 60 60 60
6.7908 6.6261 -0.0797 60 60 60
6.8655 9.3786 2.3701 60 60 60
0.8914 9.4816 1.6524 60 60 60
0.9858 -0.0000 1.8402 60 60 60
-1.4942 -8.1327 0.5345 60 60 60
-4.7261 -4.7071 1.9184 60 60 60
0.9858 -0.0000 1.8402 60 60 60
-1.4374 3.0434 2.0519 60 60 60
1.9692 -0.2235 1.3347 60 60 60
0.9858 -0.0000 1.8402 60 60 60
10.7081 -21.1010 0.2409 60 60 60
1.5292 -0.0699 1.4981 60 60 60
-1.2990 3.0847 0.7665 60 60 60
0.9858 -0.0000 1.8402 60 60 60
-4.3496 1.5680 0.0963 60 60 60
-4.8680 -0.2114 1.4287 60 60 60
-1.8828 -2.6689 0.0254 60 60 60
1.5331 -0.0505 1.4970 60 60 60
0.4048 8.1999 2.0826 60 60 60
1.9583 -10.1366 1.2892 60 60 60
-1.4416 3.5342 0.7418 60 60 60
1.3741 -4.0818 -0.0240 60 60 60
1.3416 0.5167 1.4869 60 60 60
-4.0738 -2.5503 0.0302 60 60 60
0.3158 2.1111 1.7226 60 60 60
0.9858 -0.0000 1.8402 60 60 60
-1.4321 7.9207 2.1683 60 60 60
-1.1627 3.1582 0.7658 60 60 60
-3.6407 1.7795 2.5249 60 60 60
-4.5590 -0.4576 1.1862 60 60 60
-1.7480 1.9781 2.6143 60 60 60
2.4555 -3.4500 -0.0336 60 60 60
1.4086 0.4539 1.4864 60 60 60
-0.7044 8.1053 2.7168 60 60 60
6.7748 9.1737 0.5843 60 60 60
1.4264 -0.3570 1.5104 60 60 60
0.4184 0.3832 1.5104 60 60 60
-14.9971 -12.7583 3.9774 60 60 60
-3.6259 -4.5708 1.5861 60 60 60
2.7394 6.5686 -0.1782 60 60 60
0.3957 0.3119 1.5207 60 60 60
-2.9478 1.8781 2.8575 60 60 60
-2.7884 -10.9869 4.1783 60 60 60
-17.7012 -13.3031 0.5285 60 60 60
1.5840 0.1172 1.4801 60 60 60
0.9858 -0.0000 1.8402 60 60 60
1.8320 -3.4810 -0.0232 60 60 60
-1.3358 2.0154 2.1696 60 60 60
0.4332 -4.1136 1.9499 60 60 60
0.9858 -0.0000 1.8402 60 60 60
-4.9160 1.5329 0.6855 60 60 60
-2.5224 -1.2019 0.7613 60 60 60
-1.6718 -4.6420 0.0141 60 60 60
0.5717 2.1058 0.7930 60 60 60
5.9985 7.0135 -0.0048 60 60 60
2.4155 8.7213 3.4658 60 60 60
1.6210 -10.0910 3.6855 60 60 60
0.9650 -4.1106 1.3482 60 60 60
1.3830 -4.1343 0.0670 60 60 60
0.9858 -0.0000 1.8402 60 60 60
18.3820 -30.9932 5.0919 60 60 60
15.1555 -9.9139 0.3452 60 60 60
-2.4908 1.8607 1.9150 60 60 60
0.4092 -4.1082 1.9510 60 60 60
1.3121 8.4865 3.0457 60 60 60
1.5072 -4.0913 0.2959 60 60 60
4.8534 -4.1726 -0.0014 60 60 60
-1.5333 3.6052 1.9675 60 60 60
-2.7894 -18.5499 3.7283 60 60 60
-11.2671 -5.0305 4.2682 60 60 60
-0.4269 2.6615 0.6657 60 60 60
0.0993 -3.8808 -0.0106 60 60 60
0.4424 0.4332 1.5038 60 60 60
-8.6031 -11.7051 4.3866 60 60 60
0.4501 -0.3278 1.5178 60 60 60
-1.3843 -12.0215 1.0564 60 60 60
0.4745 -10.3516 3.0460 60 60 60
-3.4167 -2.7465 0.0352 60 60 60
0.9858 -0.0000 1.8402 60 60 60
6.9528 7.5394 -0.0022 60 60 60
5.8806 -1.4230 -0.0074 60 60 60
-2.3884 -2.9049 0.0307 60 60 60
6.1366 6.4025 -0.1381 60 60 60
2.8284 -2.9755 -0.0381 60 60 60
-1.8379 1.8958 1.5003 60 60 60
5.5696 9.1409 1.8931 60 60 60
0.9858 -0.0000 1.8402 60 60 60
-0.1059 2.0574 1.4594 60 60 60
1.5413 4.6002 -0.1117 60 60 60
-3.0586 1.7496 0.8897 60 60 60
-0.9812 2.2163 0.4717 60 60 60
-10.7687 -37.1392 4.0924 60 60 60
0.0705 -0.2170 1.4953 60 60 60
-1.5581 3.7979 2.1830 60 60 60
8.9674 -4.4920 -0.0608 60 60 60
-2.8956 -18.5254 3.7331 60 60 60
1.5366 0.3947 1.5280 60 60 60
0.3407 -0.3422 1.5088 60 60 60
1.3351 -4.2451 0.4777 60 60 60
17.9643 -32.3610 6.0829 60 60 60
-3.9095 -26.2961 3.8610 60 60 60
0.9858 -0.0000 1.8402 60 60 60
-5.7462 -35.4615 7.1278 60 60 60
-12.3673 -12.1862 5.8539 60 60 60
1.7015 -0.2219 1.4432 60 60 60
-4.8503 -5.6905 0.1729 60 60 60
0.6461 -10.4299 1.0940 60 60 60
-1.9217 1.8475 0.8298 60 60 60
5.9630 -0.5305 0.0201 60 60 60
0.9858 -0.0000 1.8402 60 60 60
1.6242 8.5635 3.2486 60 60 60
0.6732 -3.2839 -0.0098 60 60 60
19.1305 -29.0987 4.9165 60 60 60
0.1903 0.0545 1.5286 60 60 60
0.9858 -0.0000 1.8402 60 60 60
7.1470 7.2476 0.0045 60 60 60
2.3455 5.0646 -0.1249 60 60 60
0.9858 -0.0000 1.8402 60 60 60
1.9324 -3.2428 -0.0275 60 60 60
-12.8485 -12.4243 3.7484 60 60 60
12.0211 10.1468 1.0111 60 60 60
-11.7033 -12.2351 4.0426 60 60 60
-2.6308 1.8587 2.0131 60 60 60
1.7700 -4.0823 0.1589 60 60 60
-0.3193 2.6768 0.6747 60 60 60
-0.3724 2.0192 0.8374 60 60 60
-6.6253 1.4806 2.7419 60 60 60
-5.6204 -3.2890 0.0400 60 60 60
7.6178 -8.8269 -0.0539 60 60 60
0.9858 -0.0000 1.8402 60 60 60
0.9858 -0.0000 1.8402 60 60 60
4.2105 -5.0671 0.0897 60 60 60
0.5052 -0.0110 1.6124 60 60 60
1.0653 -10.2204 2.7601 60 60 60
1.4513 0.5044 1.4698 60 60 60
5.7141 9.2035 2.6138 60 60 60
-2.9685 -4.4204 0.4665 60 60 60
-0.3868 -4.2301 0.1600 60 60 60
1.6083 0.0642 1.5266 60 60 60
0.9858 -0.0000 1.8402 60 60 60
-7.6703 -6.0031 -0.0030 60 60 60
-2.1891 -4.4704 -0.0073 60 60 60
0.9858 -0.0000 1.8402 60 60 60
0.9858 -0.0000 1.8402 60 60 60
2.3506 9.6683 0.8938 60 60 60
-14.0607 -12.4830 5.2643 60 60 60
-2.9884 -6.2982 0.0642 60 60 60
7.9565 -7.3964 0.5426 60 60 60
22.7849 -13.8998 5.0171 60 60 60
-1.5482 3.8309 2.1837 60 60 60
-0.1042 -10.5614 0.8675 60 60 60
1.2682 0.4699 1.4986 60 60 60
0.9858 -0.0000 1.8402 60 60 60
3.4007 9.4517 0.8449 60 60 60
-2.5224 -0.4997 0.9084 60 60 60
-3.4401 0.2391 1.1108 60 60 60
2.7933 -4.0791 -0.0152 60 60 60
-1.1899 -4.2019 1.5974 60 60 60
0.4694 0.3523 1.5209 60 60 60
2.0820 -2.9738 -0.0221 60 60 60
3.6783 -4.4719 0.0573 60 60 60
0.9858 -0.0000 1.8402 60 60 60
3.5161 -4.0513 -0.0476 60 60 60
-0.5279 8.1229 3.2961 60 60 60
0.9858 -0.0000 1.8402 60 60 60
4.8852 3.0979 -0.0365 60 60 60
4.7910 2.5494 -0.0210 60 60 60
1.4955 -0.0102 1.5051 60 60 60
-0.6090 -10.7282 1.3755 60 60 60
1.2934 0.4384 1.5045 60 60 60
-6.8369 -11.5973 1.1895 60 60 60
