ply
format ascii 1.0
element vertex 1494
property float x
property float y
property float z
property uchar red
property uchar green
property uchar blue
end_header
31.1663 11.7152 0.4012 255 200 100
9.8689 3.2056 0.0264 255 200 100
16.3142 2.7025 -0.0126 255 200 100
48.2127 28.4620 2.1294 255 200 100
9.1951 -4.2824 0.0381 255 200 100
13.6483 4.6666 0.2586 255 200 100
10.3416 1.8581 -0.0098 255 200 100
7.3914 2.1907 0.0047 255 200 100
17.0928 -2.6519 0.2569 255 200 100
16.9168 4.9944 0.2793 255 200 100
15.8433 -0.4024 0.0468 255 200 100
39.3325 -0.8626 0.8856 255 200 100
7.0013 0.0802 0.0221 255 200 100
6.4818 0.2108 0.0250 255 200 100
7.1532 3.0321 -0.0064 255 200 100
7.8111 -2.9681 0.0028 255 200 100
7.3986 2.1500 0.0056 255 200 100
15.8728 -8.0115 1.4189 255 200 100
48.2872 28.8918 2.1368 255 200 100
6.4492 0.8895 0.0191 255 200 100
50.6111 10.4512 7.8257 255 200 100
31.7746 -13.3149 0.2121 255 200 100
6.9862 -0.6551 0.0148 255 200 100
10.2437 2.7237 -0.0202 255 200 100
24.3572 1.6925 0.1596 255 200 100
13.5465 0.1909 0.0183 255 200 100
72.1967 -28.7298 1.7038 255 200 100
6.4685 -0.5321 0.0205 255 200 100
18.2997 -4.4479 0.1086 255 200 100
24.4460 6.3993 0.1440 255 200 100
49.3010 4.1468 7.5080 255 200 100
10.5278 3.3168 1.8570 255 200 100
7.4294 1.9859 0.0085 255 200 100
7.6292 -0.0356 0.0152 255 200 100
14.1831 -3.4019 0.1873 255 200 100
33.8198 9.0906 1.0796 255 200 100
23.8684 -3.7818 1.7923 255 200 100
13.4076 -0.5522 0.0327 255 200 100
11.9394 4.9799 2.4513 255 200 100
21.2580 -4.4461 0.3255 255 200 100
9.0684 -1.8325 0.0013 255 200 100
15.9070 -9.7382 0.2572 0 220 0
15.9471 -9.7437 0.2572 0 220 0
15.9872 -9.7492 0.2572 0 220 0
16.0274 -9.7547 0.2572 0 220 0
16.0675 -9.7601 0.2572 0 220 0
16.1076 -9.7656 0.2572 0 220 0
16.1478 -9.7711 0.2572 0 220 0
16.1879 -9.7766 0.2572 0 220 0
16.2280 -9.7821 0.2572 0 220 0
16.2682 -9.7876 0.2572 0 220 0
16.3083 -9.7931 0.2572 0 220 0
16.3484 -9.7986 0.2572 0 220 0
16.3885 -9.8041 0.2572 0 220 0
16.4287 -9.8096 0.2572 0 220 0
16.4688 -9.8151 0.2572 0 220 0
16.5089 -9.8206 0.2572 0 220 0
16.5491 -9.8261 0.2572 0 220 0
16.5892 -9.8315 0.2572 0 220 0
16.6293 -9.8370 0.2572 0 220 0
16.6695 -9.8425 0.2572 0 220 0
16.7096 -9.8480 0.2572 0 220 0
16.7497 -9.8535 0.2572 0 220 0
16.7899 -9.8590 0.2572 0 220 0
16.8300 -9.8645 0.2572 0 220 0
16.8701 -9.8700 0.2572 0 220 0
16.9102 -9.8755 0.2572 0 220 0
16.9504 -9.8810 0.2572 0 220 0
16.9905 -9.8865 0.2572 0 220 0
17.0306 -9.8920 0.2572 0 220 0
17.0708 -9.8975 0.2572 0 220 0
17.1109 -9.9029 0.2572 0 220 0
17.1510 -9.9084 0.2572 0 220 0
17.1912 -9.9139 0.2572 0 220 0
17.2313 -9.9194 0.2572 0 220 0
17.2714 -9.9249 0.2572 0 220 0
17.3116 -9.9304 0.2572 0 220 0
17.3517 -9.9359 0.2572 0 220 0
17.3918 -9.9414 0.2572 0 220 0
17.4320 -9.9469 0.2572 0 220 0
17.4721 -9.9524 0.2572 0 220 0
17.5122 -9.9579 0.2572 0 220 0
17.5523 -9.9634 0.2572 0 220 0
17.5925 -9.9688 0.2572 0 220 0
17.6326 -9.9743 0.2572 0 220 0
17.6727 -9.9798 0.2572 0 220 0
17.7129 -9.9853 0.2572 0 220 0
17.7530 -9.9908 0.2572 0 220 0
17.7931 -9.9963 0.2572 0 220 0
17.8333 -10.0018 0.2572 0 220 0
17.8734 -10.0073 0.2572 0 220 0
17.9135 -10.0128 0.2572 0 220 0
17.9537 -10.0183 0.2572 0 220 0
17.9938 -10.0238 0.2572 0 220 0
18.0339 -10.0293 0.2572 0 220 0
18.0740 -10.0348 0.2572 0 220 0
18.1142 -10.0402 0.2572 0 220 0
18.1543 -10.0457 0.2572 0 220 0
18.1944 -10.0512 0.2572 0 220 0
18.2346 -10.0567 0.2572 0 220 0
18.2747 -10.0622 0.2572 0 220 0
18.3148 -10.0677 0.2572 0 220 0
18.3550 -10.0732 0.2572 0 220 0
18.3951 -10.0787 0.2572 0 220 0
18.4352 -10.0842 0.2572 0 220 0
18.4754 -10.0897 0.2572 0 220 0
18.5155 -10.0952 0.2572 0 220 0
18.5556 -10.1007 0.2572 0 220 0
18.5958 -10.1062 0.2572 0 220 0
18.6359 -10.1116 0.2572 0 220 0
18.6760 -10.1171 0.2572 0 220 0
18.7161 -10.1226 0.2572 0 220 0
18.7563 -10.1281 0.2572 0 220 0
18.7964 -10.1336 0.2572 0 220 0
18.8365 -10.1391 0.2572 0 220 0
18.8767 -10.1446 0.2572 0 220 0
18.9168 -10.1501 0.2572 0 220 0
18.9569 -10.1556 0.2572 0 220 0
18.9971 -10.1611 0.2572 0 220 0
19.0372 -10.1666 0.2572 0 220 0
19.0773 -10.1721 0.2572 0 220 0
19.1175 -10.1775 0.2572 0 220 0
19.1576 -10.1830 0.2572 0 220 0
19.1977 -10.1885 0.2572 0 220 0
19.2378 -10.1940 0.2572 0 220 0
19.2780 -10.1995 0.2572 0 220 0
19.3181 -10.2050 0.2572 0 220 0
19.3582 -10.2105 0.2572 0 220 0
19.3984 -10.2160 0.2572 0 220 0
19.4385 -10.2215 0.2572 0 220 0
19.4786 -10.2270 0.2572 0 220 0
19.5188 -10.2325 0.2572 0 220 0
19.5589 -10.2380 0.2572 0 220 0
19.5990 -10.2435 0.2572 0 220 0
19.6392 -10.2489 0.2572 0 220 0
19.6793 -10.2544 0.2572 0 220 0
19.7194 -10.2599 0.2572 0 220 0
19.7595 -10.2654 0.2572 0 220 0
19.7997 -10.2709 0.2572 0 220 0
19.8398 -10.2764 0.2572 0 220 0
19.8799 -10.2819 0.2572 0 220 0
19.8799 -10.2819 0.2572 0 220 0
19.8823 -10.2648 0.2572 0 220 0
19.8846 -10.2477 0.2572 0 220 0
19.8870 -10.2306 0.2572 0 220 0
19.8893 -10.2135 0.2572 0 220 0
19.8916 -10.1964 0.2572 0 220 0
19.8940 -10.1793 0.2572 0 220 0
19.8963 -10.1622 0.2572 0 220 0
19.8987 -10.1452 0.2572 0 220 0
19.9010 -10.1281 0.2572 0 220 0
19.9033 -10.1110 0.2572 0 220 0
19.9057 -10.0939 0.2572 0 220 0
19.9080 -10.0768 0.2572 0 220 0
19.9104 -10.0597 0.2572 0 220 0
19.9127 -10.0426 0.2572 0 220 0
19.9150 -10.0255 0.2572 0 220 0
19.9174 -10.0084 0.2572 0 220 0
19.9197 -9.9913 0.2572 0 220 0
19.9220 -9.9742 0.2572 0 220 0
19.9244 -9.9571 0.2572 0 220 0
19.9267 -9.9400 0.2572 0 220 0
19.9291 -9.9229 0.2572 0 220 0
19.9314 -9.9058 0.2572 0 220 0
19.9337 -9.8888 0.2572 0 220 0
19.9361 -9.8717 0.2572 0 220 0
19.9384 -9.8546 0.2572 0 220 0
19.9408 -9.8375 0.2572 0 220 0
19.9431 -9.8204 0.2572 0 220 0
19.9454 -9.8033 0.2572 0 220 0
19.9478 -9.7862 0.2572 0 220 0
19.9501 -9.7691 0.2572 0 220 0
19.9525 -9.7520 0.2572 0 220 0
19.9548 -9.7349 0.2572 0 220 0
19.9571 -9.7178 0.2572 0 220 0
19.9595 -9.7007 0.2572 0 220 0
19.9618 -9.6836 0.2572 0 220 0
19.9642 -9.6665 0.2572 0 220 0
19.9665 -9.6495 0.2572 0 220 0
19.9688 -9.6324 0.2572 0 220 0
19.9712 -9.6153 0.2572 0 220 0
19.9735 -9.5982 0.2572 0 220 0
19.9759 -9.5811 0.2572 0 220 0
19.9782 -9.5640 0.2572 0 220 0
19.9805 -9.5469 0.2572 0 220 0
19.9829 -9.5298 0.2572 0 220 0
19.9852 -9.5127 0.2572 0 220 0
19.9875 -9.4956 0.2572 0 220 0
19.9899 -9.4785 0.2572 0 220 0
19.9922 -9.4614 0.2572 0 220 0
19.9946 -9.4443 0.2572 0 220 0
19.9969 -9.4272 0.2572 0 220 0
19.9992 -9.4101 0.2572 0 220 0
20.0016 -9.3931 0.2572 0 220 0
20.0039 -9.3760 0.2572 0 220 0
20.0063 -9.3589 0.2572 0 220 0
20.0086 -9.3418 0.2572 0 220 0
20.0109 -9.3247 0.2572 0 220 0
20.0133 -9.3076 0.2572 0 220 0
20.0156 -9.2905 0.2572 0 220 0
20.0180 -9.2734 0.2572 0 220 0
20.0203 -9.2563 0.2572 0 220 0
20.0226 -9.2392 0.2572 0 220 0
20.0250 -9.2221 0.2572 0 220 0
20.0273 -9.2050 0.2572 0 220 0
20.0297 -9.1879 0.2572 0 220 0
20.0320 -9.1708 0.2572 0 220 0
20.0343 -9.1537 0.2572 0 220 0
20.0367 -9.1367 0.2572 0 220 0
20.0390 -9.1196 0.2572 0 220 0
20.0414 -9.1025 0.2572 0 220 0
20.0437 -9.0854 0.2572 0 220 0
20.0460 -9.0683 0.2572 0 220 0
20.0484 -9.0512 0.2572 0 220 0
20.0507 -9.0341 0.2572 0 220 0
20.0530 -9.0170 0.2572 0 220 0
20.0554 -8.9999 0.2572 0 220 0
20.0577 -8.9828 0.2572 0 220 0
20.0601 -8.9657 0.2572 0 220 0
20.0624 -8.9486 0.2572 0 220 0
20.0647 -8.9315 0.2572 0 220 0
20.0671 -8.9144 0.2572 0 220 0
20.0694 -8.8974 0.2572 0 220 0
20.0718 -8.8803 0.2572 0 220 0
20.0741 -8.8632 0.2572 0 220 0
20.0764 -8.8461 0.2572 0 220 0
20.0788 -8.8290 0.2572 0 220 0
20.0811 -8.8119 0.2572 0 220 0
20.0835 -8.7948 0.2572 0 220 0
20.0858 -8.7777 0.2572 0 220 0
20.0881 -8.7606 0.2572 0 220 0
20.0905 -8.7435 0.2572 0 220 0
20.0928 -8.7264 0.2572 0 220 0
20.0952 -8.7093 0.2572 0 220 0
20.0975 -8.6922 0.2572 0 220 0
20.0998 -8.6751 0.2572 0 220 0
20.1022 -8.6580 0.2572 0 220 0
20.1045 -8.6410 0.2572 0 220 0
20.1069 -8.6239 0.2572 0 220 0
20.1092 -8.6068 0.2572 0 220 0
20.1115 -8.5897 0.2572 0 220 0
20.1115 -8.5897 0.2572 0 220 0
20.0714 -8.5842 0.2572 0 220 0
20.0313 -8.5787 0.2572 0 220 0
19.9911 -8.5732 0.2572 0 220 0
19.9510 -8.5677 0.2572 0 220 0
19.9109 -8.5622 0.2572 0 220 0
19.8707 -8.5567 0.2572 0 220 0
19.8306 -8.5512 0.2572 0 220 0
19.7905 -8.5457 0.2572 0 220 0
19.7504 -8.5402 0.2572 0 220 0
19.7102 -8.5348 0.2572 0 220 0
19.6701 -8.5293 0.2572 0 220 0
19.6300 -8.5238 0.2572 0 220 0
19.5898 -8.5183 0.2572 0 220 0
19.5497 -8.5128 0.2572 0 220 0
19.5096 -8.5073 0.2572 0 220 0
19.4694 -8.5018 0.2572 0 220 0
19.4293 -8.4963 0.2572 0 220 0
19.3892 -8.4908 0.2572 0 220 0
19.3490 -8.4853 0.2572 0 220 0
19.3089 -8.4798 0.2572 0 220 0
19.2688 -8.4743 0.2572 0 220 0
19.2286 -8.4688 0.2572 0 220 0
19.1885 -8.4634 0.2572 0 220 0
19.1484 -8.4579 0.2572 0 220 0
19.1083 -8.4524 0.2572 0 220 0
19.0681 -8.4469 0.2572 0 220 0
19.0280 -8.4414 0.2572 0 220 0
18.9879 -8.4359 0.2572 0 220 0
18.9477 -8.4304 0.2572 0 220 0
18.9076 -8.4249 0.2572 0 220 0
18.8675 -8.4194 0.2572 0 220 0
18.8273 -8.4139 0.2572 0 220 0
18.7872 -8.4084 0.2572 0 220 0
18.7471 -8.4029 0.2572 0 220 0
18.7069 -8.3974 0.2572 0 220 0
18.6668 -8.3920 0.2572 0 220 0
18.6267 -8.3865 0.2572 0 220 0
18.5866 -8.3810 0.2572 0 220 0
18.5464 -8.3755 0.2572 0 220 0
18.5063 -8.3700 0.2572 0 220 0
18.4662 -8.3645 0.2572 0 220 0
18.4260 -8.3590 0.2572 0 220 0
18.3859 -8.3535 0.2572 0 220 0
18.3458 -8.3480 0.2572 0 220 0
18.3056 -8.3425 0.2572 0 220 0
18.2655 -8.3370 0.2572 0 220 0
18.2254 -8.3315 0.2572 0 220 0
18.1852 -8.3261 0.2572 0 220 0
18.1451 -8.3206 0.2572 0 220 0
18.1050 -8.3151 0.2572 0 220 0
18.0648 -8.3096 0.2572 0 220 0
18.0247 -8.3041 0.2572 0 220 0
17.9846 -8.2986 0.2572 0 220 0
17.9445 -8.2931 0.2572 0 220 0
17.9043 -8.2876 0.2572 0 220 0
17.8642 -8.2821 0.2572 0 220 0
17.8241 -8.2766 0.2572 0 220 0
17.7839 -8.2711 0.2572 0 220 0
17.7438 -8.2656 0.2572 0 220 0
17.7037 -8.2601 0.2572 0 220 0
17.6635 -8.2547 0.2572 0 220 0
17.6234 -8.2492 0.2572 0 220 0
17.5833 -8.2437 0.2572 0 220 0
17.5431 -8.2382 0.2572 0 220 0
17.5030 -8.2327 0.2572 0 220 0
17.4629 -8.2272 0.2572 0 220 0
17.4228 -8.2217 0.2572 0 220 0
17.3826 -8.2162 0.2572 0 220 0
17.3425 -8.2107 0.2572 0 220 0
17.3024 -8.2052 0.2572 0 220 0
17.2622 -8.1997 0.2572 0 220 0
17.2221 -8.1942 0.2572 0 220 0
17.1820 -8.1887 0.2572 0 220 0
17.1418 -8.1833 0.2572 0 220 0
17.1017 -8.1778 0.2572 0 220 0
17.0616 -8.1723 0.2572 0 220 0
17.0214 -8.1668 0.2572 0 220 0
16.9813 -8.1613 0.2572 0 220 0
16.9412 -8.1558 0.2572 0 220 0
16.9011 -8.1503 0.2572 0 220 0
16.8609 -8.1448 0.2572 0 220 0
16.8208 -8.1393 0.2572 0 220 0
16.7807 -8.1338 0.2572 0 220 0
16.7405 -8.1283 0.2572 0 220 0
16.7004 -8.1228 0.2572 0 220 0
16.6603 -8.1174 0.2572 0 220 0
16.6201 -8.1119 0.2572 0 220 0
16.5800 -8.1064 0.2572 0 220 0
16.5399 -8.1009 0.2572 0 220 0
16.4997 -8.0954 0.2572 0 220 0
16.4596 -8.0899 0.2572 0 220 0
16.4195 -8.0844 0.2572 0 220 0
16.3793 -8.0789 0.2572 0 220 0
16.3392 -8.0734 0.2572 0 220 0
16.2991 -8.0679 0.2572 0 220 0
16.2590 -8.0624 0.2572 0 220 0
16.2188 -8.0569 0.2572 0 220 0
16.1787 -8.0514 0.2572 0 220 0
16.1386 -8.0460 0.2572 0 220 0
16.1386 -8.0460 0.2572 0 220 0
16.1362 -8.0630 0.2572 0 220 0
16.1339 -8.0801 0.2572 0 220 0
16.1315 -8.0972 0.2572 0 220 0
16.1292 -8.1143 0.2572 0 220 0
16.1269 -8.1314 0.2572 0 220 0
16.1245 -8.1485 0.2572 0 220 0
16.1222 -8.1656 0.2572 0 220 0
16.1198 -8.1827 0.2572 0 220 0
16.1175 -8.1998 0.2572 0 220 0
16.1152 -8.2169 0.2572 0 220 0
16.1128 -8.2340 0.2572 0 220 0
16.1105 -8.2511 0.2572 0 220 0
16.1082 -8.2682 0.2572 0 220 0
16.1058 -8.2853 0.2572 0 220 0
16.1035 -8.3024 0.2572 0 220 0
16.1011 -8.3194 0.2572 0 220 0
16.0988 -8.3365 0.2572 0 220 0
16.0965 -8.3536 0.2572 0 220 0
16.0941 -8.3707 0.2572 0 220 0
16.0918 -8.3878 0.2572 0 220 0
16.0894 -8.4049 0.2572 0 220 0
16.0871 -8.4220 0.2572 0 220 0
16.0848 -8.4391 0.2572 0 220 0
16.0824 -8.4562 0.2572 0 220 0
16.0801 -8.4733 0.2572 0 220 0
16.0777 -8.4904 0.2572 0 220 0
16.0754 -8.5075 0.2572 0 220 0
16.0731 -8.5246 0.2572 0 220 0
16.0707 -8.5417 0.2572 0 220 0
16.0684 -8.5587 0.2572 0 220 0
16.0660 -8.5758 0.2572 0 220 0
16.0637 -8.5929 0.2572 0 220 0
16.0614 -8.6100 0.2572 0 220 0
16.0590 -8.6271 0.2572 0 220 0
16.0567 -8.6442 0.2572 0 220 0
16.0543 -8.6613 0.2572 0 220 0
16.0520 -8.6784 0.2572 0 220 0
16.0497 -8.6955 0.2572 0 220 0
16.0473 -8.7126 0.2572 0 220 0
16.0450 -8.7297 0.2572 0 220 0
16.0427 -8.7468 0.2572 0 220 0
16.0403 -8.7639 0.2572 0 220 0
16.0380 -8.7810 0.2572 0 220 0
16.0356 -8.7981 0.2572 0 220 0
16.0333 -8.8151 0.2572 0 220 0
16.0310 -8.8322 0.2572 0 220 0
16.0286 -8.8493 0.2572 0 220 0
16.0263 -8.8664 0.2572 0 220 0
16.0239 -8.8835 0.2572 0 220 0
16.0216 -8.9006 0.2572 0 220 0
16.0193 -8.9177 0.2572 0 220 0
16.0169 -8.9348 0.2572 0 220 0
16.0146 -8.9519 0.2572 0 220 0
16.0122 -8.9690 0.2572 0 220 0
16.0099 -8.9861 0.2572 0 220 0
16.0076 -9.0032 0.2572 0 220 0
16.0052 -9.0203 0.2572 0 220 0
16.0029 -9.0374 0.2572 0 220 0
16.0005 -9.0545 0.2572 0 220 0
15.9982 -9.0715 0.2572 0 220 0
15.9959 -9.0886 0.2572 0 220 0
15.9935 -9.1057 0.2572 0 220 0
15.9912 -9.1228 0.2572 0 220 0
15.9888 -9.1399 0.2572 0 220 0
15.9865 -9.1570 0.2572 0 220 0
15.9842 -9.1741 0.2572 0 220 0
15.9818 -9.1912 0.2572 0 220 0
15.9795 -9.2083 0.2572 0 220 0
15.9772 -9.2254 0.2572 0 220 0
15.9748 -9.2425 0.2572 0 220 0
15.9725 -9.2596 0.2572 0 220 0
15.9701 -9.2767 0.2572 0 220 0
15.9678 -9.2938 0.2572 0 220 0
15.9655 -9.3108 0.2572 0 220 0
15.9631 -9.3279 0.2572 0 220 0
15.9608 -9.3450 0.2572 0 220 0
15.9584 -9.3621 0.2572 0 220 0
15.9561 -9.3792 0.2572 0 220 0
15.9538 -9.3963 0.2572 0 220 0
15.9514 -9.4134 0.2572 0 220 0
15.9491 -9.4305 0.2572 0 220 0
15.9467 -9.4476 0.2572 0 220 0
15.9444 -9.4647 0.2572 0 220 0
15.9421 -9.4818 0.2572 0 220 0
15.9397 -9.4989 0.2572 0 220 0
15.9374 -9.5160 0.2572 0 220 0
15.9350 -9.5331 0.2572 0 220 0
15.9327 -9.5502 0.2572 0 220 0
15.9304 -9.5672 0.2572 0 220 0
15.9280 -9.5843 0.2572 0 220 0
15.9257 -9.6014 0.2572 0 220 0
15.9233 -9.6185 0.2572 0 220 0
15.9210 -9.6356 0.2572 0 220 0
15.9187 -9.6527 0.2572 0 220 0
15.9163 -9.6698 0.2572 0 220 0
15.9140 -9.6869 0.2572 0 220 0
15.9117 -9.7040 0.2572 0 220 0
15.9093 -9.7211 0.2572 0 220 0
15.9070 -9.7382 0.2572 0 220 0
15.9070 -9.7382 1.8882 0 220 0
15.9471 -9.7437 1.8882 0 220 0
15.9872 -9.7492 1.8882 0 220 0
16.0274 -9.7547 1.8882 0 220 0
16.0675 -9.7601 1.8882 0 220 0
16.1076 -9.7656 1.8882 0 220 0
16.1478 -9.7711 1.8882 0 220 0
16.1879 -9.7766 1.8882 0 220 0
16.2280 -9.7821 1.8882 0 220 0
16.2682 -9.7876 1.8882 0 220 0
16.3083 -9.7931 1.8882 0 220 0
16.3484 -9.7986 1.8882 0 220 0
16.3885 -9.8041 1.8882 0 220 0
16.4287 -9.8096 1.8882 0 220 0
16.4688 -9.8151 1.8882 0 220 0
16.5089 -9.8206 1.8882 0 220 0
16.5491 -9.8261 1.8882 0 220 0
16.5892 -9.8315 1.8882 0 220 0
16.6293 -9.8370 1.8882 0 220 0
16.6695 -9.8425 1.8882 0 220 0
16.7096 -9.8480 1.8882 0 220 0
16.7497 -9.8535 1.8882 0 220 0
16.7899 -9.8590 1.8882 0 220 0
16.8300 -9.8645 1.8882 0 220 0
16.8701 -9.8700 1.8882 0 220 0
16.9102 -9.8755 1.8882 0 220 0
16.9504 -9.8810 1.8882 0 220 0
16.9905 -9.8865 1.8882 0 220 0
17.0306 -9.8920 1.8882 0 220 0
17.0708 -9.8975 1.8882 0 220 0
17.1109 -9.9029 1.8882 0 220 0
17.1510 -9.9084 1.8882 0 220 0
17.1912 -9.9139 1.8882 0 220 0
17.2313 -9.9194 1.8882 0 220 0
17.2714 -9.9249 1.8882 0 220 0
17.3116 -9.9304 1.8882 0 220 0
17.3517 -9.9359 1.8882 0 220 0
17.3918 -9.9414 1.8882 0 220 0
17.4320 -9.9469 1.8882 0 220 0
17.4721 -9.9524 1.8882 0 220 0
17.5122 -9.9579 1.8882 0 220 0
17.5523 -9.9634 1.8882 0 220 0
17.5925 -9.9688 1.8882 0 220 0
17.6326 -9.9743 1.8882 0 220 0
17.6727 -9.9798 1.8882 0 220 0
17.7129 -9.9853 1.8882 0 220 0
17.7530 -9.9908 1.8882 0 220 0
17.7931 -9.9963 1.8882 0 220 0
17.8333 -10.0018 1.8882 0 220 0
17.8734 -10.0073 1.8882 0 220 0
17.9135 -10.0128 1.8882 0 220 0
17.9537 -10.0183 1.8882 0 220 0
17.9938 -10.0238 1.8882 0 220 0
18.0339 -10.0293 1.8882 0 220 0
18.0740 -10.0348 1.8882 0 220 0
18.1142 -10.0402 1.8882 0 220 0
18.1543 -10.0457 1.8882 0 220 0
18.1944 -10.0512 1.8882 0 220 0
18.2346 -10.0567 1.8882 0 220 0
18.2747 -10.0622 1.8882 0 220 0
18.3148 -10.0677 1.8882 0 220 0
18.3550 -10.0732 1.8882 0 220 0
18.3951 -10.0787 1.8882 0 220 0
18.4352 -10.0842 1.8882 0 220 0
18.4754 -10.0897 1.8882 0 220 0
18.5155 -10.0952 1.8882 0 220 0
18.5556 -10.1007 1.8882 0 220 0
18.5958 -10.1062 1.8882 0 220 0
18.6359 -10.1116 1.8882 0 220 0
18.6760 -10.1171 1.8882 0 220 0
18.7161 -10.1226 1.8882 0 220 0
18.7563 -10.1281 1.8882 0 220 0
18.7964 -10.1336 1.8882 0 220 0
18.8365 -10.1391 1.8882 0 220 0
18.8767 -10.1446 1.8882 0 220 0
18.9168 -10.1501 1.8882 0 220 0
18.9569 -10.1556 1.8882 0 220 0
18.9971 -10.1611 1.8882 0 220 0
19.0372 -10.1666 1.8882 0 220 0
19.0773 -10.1721 1.8882 0 220 0
19.1175 -10.1775 1.8882 0 220 0
19.1576 -10.1830 1.8882 0 220 0
19.1977 -10.1885 1.8882 0 220 0
19.2378 -10.1940 1.8882 0 220 0
19.2780 -10.1995 1.8882 0 220 0
19.3181 -10.2050 1.8882 0 220 0
19.3582 -10.2105 1.8882 0 220 0
19.3984 -10.2160 1.8882 0 220 0
19.4385 -10.2215 1.8882 0 220 0
19.4786 -10.2270 1.8882 0 220 0
19.5188 -10.2325 1.8882 0 220 0
19.5589 -10.2380 1.8882 0 220 0
19.5990 -10.2435 1.8882 0 220 0
19.6392 -10.2489 1.8882 0 220 0
19.6793 -10.2544 1.8882 0 220 0
19.7194 -10.2599 1.8882 0 220 0
19.7595 -10.2654 1.8882 0 220 0
19.7997 -10.2709 1.8882 0 220 0
19.8398 -10.2764 1.8882 0 220 0
19.8799 -10.2819 1.8882 0 220 0
19.8799 -10.2819 1.8882 0 220 0
19.8823 -10.2648 1.8882 0 220 0
19.8846 -10.2477 1.8882 0 220 0
19.8870 -10.2306 1.8882 0 220 0
19.8893 -10.2135 1.8882 0 220 0
19.8916 -10.1964 1.8882 0 220 0
19.8940 -10.1793 1.8882 0 220 0
19.8963 -10.1622 1.8882 0 220 0
19.8987 -10.1452 1.8882 0 220 0
19.9010 -10.1281 1.8882 0 220 0
19.9033 -10.1110 1.8882 0 220 0
19.9057 -10.0939 1.8882 0 220 0
19.9080 -10.0768 1.8882 0 220 0
19.9104 -10.0597 1.8882 0 220 0
19.9127 -10.0426 1.8882 0 220 0
19.9150 -10.0255 1.8882 0 220 0
19.9174 -10.0084 1.8882 0 220 0
19.9197 -9.9913 1.8882 0 220 0
19.9220 -9.9742 1.8882 0 220 0
19.9244 -9.9571 1.8882 0 220 0
19.9267 -9.9400 1.8882 0 220 0
19.9291 -9.9229 1.8882 0 220 0
19.9314 -9.9058 1.8882 0 220 0
19.9337 -9.8888 1.8882 0 220 0
19.9361 -9.8717 1.8882 0 220 0
19.9384 -9.8546 1.8882 0 220 0
19.9408 -9.8375 1.8882 0 220 0
19.9431 -9.8204 1.8882 0 220 0
19.9454 -9.8033 1.8882 0 220 0
19.9478 -9.7862 1.8882 0 220 0
19.9501 -9.7691 1.8882 0 220 0
19.9525 -9.7520 1.8882 0 220 0
19.9548 -9.7349 1.8882 0 220 0
19.9571 -9.7178 1.8882 0 220 0
19.9595 -9.7007 1.8882 0 220 0
19.9618 -9.6836 1.8882 0 220 0
19.9642 -9.6665 1.8882 0 220 0
19.9665 -9.6495 1.8882 0 220 0
19.9688 -9.6324 1.8882 0 220 0
19.9712 -9.6153 1.8882 0 220 0
19.9735 -9.5982 1.8882 0 220 0
19.9759 -9.5811 1.8882 0 220 0
19.9782 -9.5640 1.8882 0 220 0
19.9805 -9.5469 1.8882 0 220 0
19.9829 -9.5298 1.8882 0 220 0
19.9852 -9.5127 1.8882 0 220 0
19.9875 -9.4956 1.8882 0 220 0
19.9899 -9.4785 1.8882 0 220 0
19.9922 -9.4614 1.8882 0 220 0
19.9946 -9.4443 1.8882 0 220 0
19.9969 -9.4272 1.8882 0 220 0
19.9992 -9.4101 1.8882 0 220 0
20.0016 -9.3931 1.8882 0 220 0
20.0039 -9.3760 1.8882 0 220 0
20.0063 -9.3589 1.8882 0 220 0
20.0086 -9.3418 1.8882 0 220 0
20.0109 -9.3247 1.8882 0 220 0
20.0133 -9.3076 1.8882 0 220 0
20.0156 -9.2905 1.8882 0 220 0
20.0180 -9.2734 1.8882 0 220 0
20.0203 -9.2563 1.8882 0 220 0
20.0226 -9.2392 1.8882 0 220 0
20.0250 -9.2221 1.8882 0 220 0
20.0273 -9.2050 1.8882 0 220 0
20.0297 -9.1879 1.8882 0 220 0
20.0320 -9.1708 1.8882 0 220 0
20.0343 -9.1537 1.8882 0 220 0
20.0367 -9.1367 1.8882 0 220 0
20.0390 -9.1196 1.8882 0 220 0
20.0414 -9.1025 1.8882 0 220 0
20.0437 -9.0854 1.8882 0 220 0
20.0460 -9.0683 1.8882 0 220 0
20.0484 -9.0512 1.8882 0 220 0
20.0507 -9.0341 1.8882 0 220 0
20.0530 -9.0170 1.8882 0 220 0
20.0554 -8.9999 1.8882 0 220 0
20.0577 -8.9828 1.8882 0 220 0
20.0601 -8.9657 1.8882 0 220 0
20.0624 -8.9486 1.8882 0 220 0
20.0647 -8.9315 1.8882 0 220 0
20.0671 -8.9144 1.8882 0 220 0
20.0694 -8.8974 1.8882 0 220 0
20.0718 -8.8803 1.8882 0 220 0
20.0741 -8.8632 1.8882 0 220 0
20.0764 -8.8461 1.8882 0 220 0
20.0788 -8.8290 1.8882 0 220 0
20.0811 -8.8119 1.8882 0 220 0
20.0835 -8.7948 1.8882 0 220 0
20.0858 -8.7777 1.8882 0 220 0
20.0881 -8.7606 1.8882 0 220 0
20.0905 -8.7435 1.8882 0 220 0
20.0928 -8.7264 1.8882 0 220 0
20.0952 -8.7093 1.8882 0 220 0
20.0975 -8.6922 1.8882 0 220 0
20.0998 -8.6751 1.8882 0 220 0
20.1022 -8.6580 1.8882 0 220 0
20.1045 -8.6410 1.8882 0 220 0
20.1069 -8.6239 1.8882 0 220 0
20.1092 -8.6068 1.8882 0 220 0
20.1115 -8.5897 1.8882 0 220 0
20.1115 -8.5897 1.8882 0 220 0
20.0714 -8.5842 1.8882 0 220 0
20.0313 -8.5787 1.8882 0 220 0
19.9911 -8.5732 1.8882 0 220 0
19.9510 -8.5677 1.8882 0 220 0
19.9109 -8.5622 1.8882 0 220 0
19.8707 -8.5567 1.8882 0 220 0
19.8306 -8.5512 1.8882 0 220 0
19.7905 -8.5457 1.8882 0 220 0
19.7504 -8.5402 1.8882 0 220 0
19.7102 -8.5348 1.8882 0 220 0
19.6701 -8.5293 1.8882 0 220 0
19.6300 -8.5238 1.8882 0 220 0
19.5898 -8.5183 1.8882 0 220 0
19.5497 -8.5128 1.8882 0 220 0
19.5096 -8.5073 1.8882 0 220 0
19.4694 -8.5018 1.8882 0 220 0
19.4293 -8.4963 1.8882 0 220 0
19.3892 -8.4908 1.8882 0 220 0
19.3490 -8.4853 1.8882 0 220 0
19.3089 -8.4798 1.8882 0 220 0
19.2688 -8.4743 1.8882 0 220 0
19.2286 -8.4688 1.8882 0 220 0
19.1885 -8.4634 1.8882 0 220 0
19.1484 -8.4579 1.8882 0 220 0
19.1083 -8.4524 1.8882 0 220 0
19.0681 -8.4469 1.8882 0 220 0
19.0280 -8.4414 1.8882 0 220 0
18.9879 -8.4359 1.8882 0 220 0
18.9477 -8.4304 1.8882 0 220 0
18.9076 -8.4249 1.8882 0 220 0
18.8675 -8.4194 1.8882 0 220 0
18.8273 -8.4139 1.8882 0 220 0
18.7872 -8.4084 1.8882 0 220 0
18.7471 -8.4029 1.8882 0 220 0
18.7069 -8.3974 1.8882 0 220 0
18.6668 -8.3920 1.8882 0 220 0
18.6267 -8.3865 1.8882 0 220 0
18.5866 -8.3810 1.8882 0 220 0
18.5464 -8.3755 1.8882 0 220 0
18.5063 -8.3700 1.8882 0 220 0
18.4662 -8.3645 1.8882 0 220 0
18.4260 -8.3590 1.8882 0 220 0
18.3859 -8.3535 1.8882 0 220 0
18.3458 -8.3480 1.8882 0 220 0
18.3056 -8.3425 1.8882 0 220 0
18.2655 -8.3370 1.8882 0 220 0
18.2254 -8.3315 1.8882 0 220 0
18.1852 -8.3261 1.8882 0 220 0
18.1451 -8.3206 1.8882 0 220 0
18.1050 -8.3151 1.8882 0 220 0
18.0648 -8.3096 1.8882 0 220 0
18.0247 -8.3041 1.8882 0 220 0
17.9846 -8.2986 1.8882 0 220 0
17.9445 -8.2931 1.8882 0 220 0
17.9043 -8.2876 1.8882 0 220 0
17.8642 -8.2821 1.8882 0 220 0
17.8241 -8.2766 1.8882 0 220 0
17.7839 -8.2711 1.8882 0 220 0
17.7438 -8.2656 1.8882 0 220 0
17.7037 -8.2601 1.8882 0 220 0
17.6635 -8.2547 1.8882 0 220 0
17.6234 -8.2492 1.8882 0 220 0
17.5833 -8.2437 1.8882 0 220 0
17.5431 -8.2382 1.8882 0 220 0
17.5030 -8.2327 1.8882 0 220 0
17.4629 -8.2272 1.8882 0 220 0
17.4228 -8.2217 1.8882 0 220 0
17.3826 -8.2162 1.8882 0 220 0
17.3425 -8.2107 1.8882 0 220 0
17.3024 -8.2052 1.8882 0 220 0
17.2622 -8.1997 1.8882 0 220 0
17.2221 -8.1942 1.8882 0 220 0
17.1820 -8.1887 1.8882 0 220 0
17.1418 -8.1833 1.8882 0 220 0
17.1017 -8.1778 1.8882 0 220 0
17.0616 -8.1723 1.8882 0 220 0
17.0214 -8.1668 1.8882 0 220 0
16.9813 -8.1613 1.8882 0 220 0
16.9412 -8.1558 1.8882 0 220 0
16.9011 -8.1503 1.8882 0 220 0
16.8609 -8.1448 1.8882 0 220 0
16.8208 -8.1393 1.8882 0 220 0
16.7807 -8.1338 1.8882 0 220 0
16.7405 -8.1283 1.8882 0 220 0
16.7004 -8.1228 1.8882 0 220 0
16.6603 -8.1174 1.8882 0 220 0
16.6201 -8.1119 1.8882 0 220 0
16.5800 -8.1064 1.8882 0 220 0
16.5399 -8.1009 1.8882 0 220 0
16.4997 -8.0954 1.8882 0 220 0
16.4596 -8.0899 1.8882 0 220 0
16.4195 -8.0844 1.8882 0 220 0
16.3793 -8.0789 1.8882 0 220 0
16.3392 -8.0734 1.8882 0 220 0
16.2991 -8.0679 1.8882 0 220 0
16.2590 -8.0624 1.8882 0 220 0
16.2188 -8.0569 1.8882 0 220 0
16.1787 -8.0514 1.8882 0 220 0
16.1386 -8.0460 1.8882 0 220 0
16.1386 -8.0460 1.8882 0 220 0
16.1362 -8.0630 1.8882 0 220 0
16.1339 -8.0801 1.8882 0 220 0
16.1315 -8.0972 1.8882 0 220 0
16.1292 -8.1143 1.8882 0 220 0
16.1269 -8.1314 1.8882 0 220 0
16.1245 -8.1485 1.8882 0 220 0
16.1222 -8.1656 1.8882 0 220 0
16.1198 -8.1827 1.8882 0 220 0
16.1175 -8.1998 1.8882 0 220 0
16.1152 -8.2169 1.8882 0 220 0
16.1128 -8.2340 1.8882 0 220 0
16.1105 -8.2511 1.8882 0 220 0
16.1082 -8.2682 1.8882 0 220 0
16.1058 -8.2853 1.8882 0 220 0
16.1035 -8.3024 1.8882 0 220 0
16.1011 -8.3194 1.8882 0 220 0
16.0988 -8.3365 1.8882 0 220 0
16.0965 -8.3536 1.8882 0 220 0
16.0941 -8.3707 1.8882 0 220 0
16.0918 -8.3878 1.8882 0 220 0
16.0894 -8.4049 1.8882 0 220 0
16.0871 -8.4220 1.8882 0 220 0
16.0848 -8.4391 1.8882 0 220 0
16.0824 -8.4562 1.8882 0 220 0
16.0801 -8.4733 1.8882 0 220 0
16.0777 -8.4904 1.8882 0 220 0
16.0754 -8.5075 1.8882 0 220 0
16.0731 -8.5246 1.8882 0 220 0
16.0707 -8.5417 1.8882 0 220 0
16.0684 -8.5587 1.8882 0 220 0
16.0660 -8.5758 1.8882 0 220 0
16.0637 -8.5929 1.8882 0 220 0
16.0614 -8.6100 1.8882 0 220 0
16.0590 -8.6271 1.8882 0 220 0
16.0567 -8.6442 1.8882 0 220 0
16.0543 -8.6613 1.8882 0 220 0
16.0520 -8.6784 1.8882 0 220 0
16.0497 -8.6955 1.8882 0 220 0
16.0473 -8.7126 1.8882 0 220 0
16.0450 -8.7297 1.8882 0 220 0
16.0427 -8.7468 1.8882 0 220 0
16.0403 -8.7639 1.8882 0 220 0
16.0380 -8.7810 1.8882 0 220 0
16.0356 -8.7981 1.8882 0 220 0
16.0333 -8.8151 1.8882 0 220 0
16.0310 -8.8322 1.8882 0 220 0
16.0286 -8.8493 1.8882 0 220 0
16.0263 -8.8664 1.8882 0 220 0
16.0239 -8.8835 1.8882 0 220 0
16.0216 -8.9006 1.8882 0 220 0
16.0193 -8.9177 1.8882 0 220 0
16.0169 -8.9348 1.8882 0 220 0
16.0146 -8.9519 1.8882 0 220 0
16.0122 -8.9690 1.8882 0 220 0
16.0099 -8.9861 1.8882 0 220 0
16.0076 -9.0032 1.8882 0 220 0
16.0052 -9.0203 1.8882 0 220 0
16.0029 -9.0374 1.8882 0 220 0
16.0005 -9.0545 1.8882 0 220 0
15.9982 -9.0715 1.8882 0 220 0
15.9959 -9.0886 1.8882 0 220 0
15.9935 -9.1057 1.8882 0 220 0
15.9912 -9.1228 1.8882 0 220 0
15.9888 -9.1399 1.8882 0 220 0
15.9865 -9.1570 1.8882 0 220 0
15.9842 -9.1741 1.8882 0 220 0
15.9818 -9.1912 1.8882 0 220 0
15.9795 -9.2083 1.8882 0 220 0
15.9772 -9.2254 1.8882 0 220 0
15.9748 -9.2425 1.8882 0 220 0
15.9725 -9.2596 1.8882 0 220 0
15.9701 -9.2767 1.8882 0 220 0
15.9678 -9.2938 1.8882 0 220 0
15.9655 -9.3108 1.8882 0 220 0
15.9631 -9.3279 1.8882 0 220 0
15.9608 -9.3450 1.8882 0 220 0
15.9584 -9.3621 1.8882 0 220 0
15.9561 -9.3792 1.8882 0 220 0
15.9538 -9.3963 1.8882 0 220 0
15.9514 -9.4134 1.8882 0 220 0
15.9491 -9.4305 1.8882 0 220 0
15.9467 -9.4476 1.8882 0 220 0
15.9444 -9.4647 1.8882 0 220 0
15.9421 -9.4818 1.8882 0 220 0
15.9397 -9.4989 1.8882 0 220 0
15.9374 -9.5160 1.8882 0 220 0
15.9350 -9.5331 1.8882 0 220 0
15.9327 -9.5502 1.8882 0 220 0
15.9304 -9.5672 1.8882 0 220 0
15.9280 -9.5843 1.8882 0 220 0
15.9257 -9.6014 1.8882 0 220 0
15.9233 -9.6185 1.8882 0 220 0
15.9210 -9.6356 1.8882 0 220 0
15.9187 -9.6527 1.8882 0 220 0
15.9163 -9.6698 1.8882 0 220 0
15.9140 -9.6869 1.8882 0 220 0
15.9117 -9.7040 1.8882 0 220 0
15.9093 -9.7211 1.8882 0 220 0
15.9070 -9.7382 1.8882 0 220 0
15.9070 -9.7382 0.2572 0 220 0
15.9070 -9.7382 0.2737 0 220 0
15.9070 -9.7382 0.2902 0 220 0
15.9070 -9.7382 0.3066 0 220 0
15.9070 -9.7382 0.3231 0 220 0
15.9070 -9.7382 0.3396 0 220 0
15.9070 -9.7382 0.3561 0 220 0
15.9070 -9.7382 0.3725 0 220 0
15.9070 -9.7382 0.3890 0 220 0
15.9070 -9.7382 0.4055 0 220 0
15.9070 -9.7382 0.4220 0 220 0
15.9070 -9.7382 0.4384 0 220 0
15.9070 -9.7382 0.4549 0 220 0
15.9070 -9.7382 0.4714 0 220 0
15.9070 -9.7382 0.4879 0 220 0
15.9070 -9.7382 0.5043 0 220 0
15.9070 -9.7382 0.5208 0 220 0
15.9070 -9.7382 0.5373 0 220 0
15.9070 -9.7382 0.5538 0 220 0
15.9070 -9.7382 0.5702 0 220 0
15.9070 -9.7382 0.5867 0 220 0
15.9070 -9.7382 0.6032 0 220 0
15.9070 -9.7382 0.6197 0 220 0
15.9070 -9.7382 0.6361 0 220 0
15.9070 -9.7382 0.6526 0 220 0
15.9070 -9.7382 0.6691 0 220 0
15.9070 -9.7382 0.6856 0 220 0
15.9070 -9.7382 0.7020 0 220 0
15.9070 -9.7382 0.7185 0 220 0
15.9070 -9.7382 0.7350 0 220 0
15.9070 -9.7382 0.7514 0 220 0
15.9070 -9.7382 0.7679 0 220 0
15.9070 -9.7382 0.7844 0 220 0
15.9070 -9.7382 0.8009 0 220 0
15.9070 -9.7382 0.8173 0 220 0
15.9070 -9.7382 0.8338 0 220 0
15.9070 -9.7382 0.8503 0 220 0
15.9070 -9.7382 0.8668 0 220 0
15.9070 -9.7382 0.8832 0 220 0
15.9070 -9.7382 0.8997 0 220 0
15.9070 -9.7382 0.9162 0 220 0
15.9070 -9.7382 0.9327 0 220 0
15.9070 -9.7382 0.9491 0 220 0
15.9070 -9.7382 0.9656 0 220 0
15.9070 -9.7382 0.9821 0 220 0
15.9070 -9.7382 0.9986 0 220 0
15.9070 -9.7382 1.0150 0 220 0
15.9070 -9.7382 1.0315 0 220 0
15.9070 -9.7382 1.0480 0 220 0
15.9070 -9.7382 1.0645 0 220 0
15.9070 -9.7382 1.0809 0 220 0
15.9070 -9.7382 1.0974 0 220 0
15.9070 -9.7382 1.1139 0 220 0
15.9070 -9.7382 1.1304 0 220 0
15.9070 -9.7382 1.1468 0 220 0
15.9070 -9.7382 1.1633 0 220 0
15.9070 -9.7382 1.1798 0 220 0
15.9070 -9.7382 1.1963 0 220 0
15.9070 -9.7382 1.2127 0 220 0
15.9070 -9.7382 1.2292 0 220 0
15.9070 -9.7382 1.2457 0 220 0
15.9070 -9.7382 1.2622 0 220 0
15.9070 -9.7382 1.2786 0 220 0
15.9070 -9.7382 1.2951 0 220 0
15.9070 -9.7382 1.3116 0 220 0
15.9070 -9.7382 1.3281 0 220 0
15.9070 -9.7382 1.3445 0 220 0
15.9070 -9.7382 1.3610 0 220 0
15.9070 -9.7382 1.3775 0 220 0
15.9070 -9.7382 1.3940 0 220 0
15.9070 -9.7382 1.4104 0 220 0
15.9070 -9.7382 1.4269 0 220 0
15.9070 -9.7382 1.4434 0 220 0
15.9070 -9.7382 1.4599 0 220 0
15.9070 -9.7382 1.4763 0 220 0
15.9070 -9.7382 1.4928 0 220 0
15.9070 -9.7382 1.5093 0 220 0
15.9070 -9.7382 1.5258 0 220 0
15.9070 -9.7382 1.5422 0 220 0
15.9070 -9.7382 1.5587 0 220 0
15.9070 -9.7382 1.5752 0 220 0
15.9070 -9.7382 1.5917 0 220 0
15.9070 -9.7382 1.6081 0 220 0
15.9070 -9.7382 1.6246 0 220 0
15.9070 -9.7382 1.6411 0 220 0
15.9070 -9.7382 1.6576 0 220 0
15.9070 -9.7382 1.6740 0 220 0
15.9070 -9.7382 1.6905 0 220 0
15.9070 -9.7382 1.7070 0 220 0
15.9070 -9.7382 1.7235 0 220 0
15.9070 -9.7382 1.7399 0 220 0
15.9070 -9.7382 1.7564 0 220 0
15.9070 -9.7382 1.7729 0 220 0
15.9070 -9.7382 1.7894 0 220 0
15.9070 -9.7382 1.8058 0 220 0
15.9070 -9.7382 1.8223 0 220 0
15.9070 -9.7382 1.8388 0 220 0
15.9070 -9.7382 1.8553 0 220 0
15.9070 -9.7382 1.8717 0 220 0
15.9070 -9.7382 1.8882 0 220 0
19.8799 -10.2819 0.2572 0 220 0
19.8799 -10.2819 0.2737 0 220 0
19.8799 -10.2819 0.2902 0 220 0
19.8799 -10.2819 0.3066 0 220 0
19.8799 -10.2819 0.3231 0 220 0
19.8799 -10.2819 0.3396 0 220 0
19.8799 -10.2819 0.3561 0 220 0
19.8799 -10.2819 0.3725 0 220 0
19.8799 -10.2819 0.3890 0 220 0
19.8799 -10.2819 0.4055 0 220 0
19.8799 -10.2819 0.4220 0 220 0
19.8799 -10.2819 0.4384 0 220 0
19.8799 -10.2819 0.4549 0 220 0
19.8799 -10.2819 0.4714 0 220 0
19.8799 -10.2819 0.4879 0 220 0
19.8799 -10.2819 0.5043 0 220 0
19.8799 -10.2819 0.5208 0 220 0
19.8799 -10.2819 0.5373 0 220 0
19.8799 -10.2819 0.5538 0 220 0
19.8799 -10.2819 0.5702 0 220 0
19.8799 -10.2819 0.5867 0 220 0
19.8799 -10.2819 0.6032 0 220 0
19.8799 -10.2819 0.6197 0 220 0
19.8799 -10.2819 0.6361 0 220 0
19.8799 -10.2819 0.6526 0 220 0
19.8799 -10.2819 0.6691 0 220 0
19.8799 -10.2819 0.6856 0 220 0
19.8799 -10.2819 0.7020 0 220 0
19.8799 -10.2819 0.7185 0 220 0
19.8799 -10.2819 0.7350 0 220 0
19.8799 -10.2819 0.7514 0 220 0
19.8799 -10.2819 0.7679 0 220 0
19.8799 -10.2819 0.7844 0 220 0
19.8799 -10.2819 0.8009 0 220 0
19.8799 -10.2819 0.8173 0 220 0
19.8799 -10.2819 0.8338 0 220 0
19.8799 -10.2819 0.8503 0 220 0
19.8799 -10.2819 0.8668 0 220 0
19.8799 -10.2819 0.8832 0 220 0
19.8799 -10.2819 0.8997 0 220 0
19.8799 -10.2819 0.9162 0 220 0
19.8799 -10.2819 0.9327 0 220 0
19.8799 -10.2819 0.9491 0 220 0
19.8799 -10.2819 0.9656 0 220 0
19.8799 -10.2819 0.9821 0 220 0
19.8799 -10.2819 0.9986 0 220 0
19.8799 -10.2819 1.0150 0 220 0
19.8799 -10.2819 1.0315 0 220 0
19.8799 -10.2819 1.0480 0 220 0
19.8799 -10.2819 1.0645 0 220 0
19.8799 -10.2819 1.0809 0 220 0
19.8799 -10.2819 1.0974 0 220 0
19.8799 -10.2819 1.1139 0 220 0
19.8799 -10.2819 1.1304 0 220 0
19.8799 -10.2819 1.1468 0 220 0
19.8799 -10.2819 1.1633 0 220 0
19.8799 -10.2819 1.1798 0 220 0
19.8799 -10.2819 1.1963 0 220 0
19.8799 -10.2819 1.2127 0 220 0
19.8799 -10.2819 1.2292 0 220 0
19.8799 -10.2819 1.2457 0 220 0
19.8799 -10.2819 1.2622 0 220 0
19.8799 -10.2819 1.2786 0 220 0
19.8799 -10.2819 1.2951 0 220 0
19.8799 -10.2819 1.3116 0 220 0
19.8799 -10.2819 1.3281 0 220 0
19.8799 -10.2819 1.3445 0 220 0
19.8799 -10.2819 1.3610 0 220 0
19.8799 -10.2819 1.3775 0 220 0
19.8799 -10.2819 1.3940 0 220 0
19.8799 -10.2819 1.4104 0 220 0
19.8799 -10.2819 1.4269 0 220 0
19.8799 -10.2819 1.4434 0 220 0
19.8799 -10.2819 1.4599 0 220 0
19.8799 -10.2819 1.4763 0 220 0
19.8799 -10.2819 1.4928 0 220 0
19.8799 -10.2819 1.5093 0 220 0
19.8799 -10.2819 1.5258 0 220 0
19.8799 -10.2819 1.5422 0 220 0
19.8799 -10.2819 1.5587 0 220 0
19.8799 -10.2819 1.5752 0 220 0
19.8799 -10.2819 1.5917 0 220 0
19.8799 -10.2819 1.6081 0 220 0
19.8799 -10.2819 1.6246 0 220 0
19.8799 -10.2819 1.6411 0 220 0
19.8799 -10.2819 1.6576 0 220 0
19.8799 -10.2819 1.6740 0 220 0
19.8799 -10.2819 1.6905 0 220 0
19.8799 -10.2819 1.7070 0 220 0
19.8799 -10.2819 1.7235 0 220 0
19.8799 -10.2819 1.7399 0 220 0
19.8799 -10.2819 1.7564 0 220 0
19.8799 -10.2819 1.7729 0 220 0
19.8799 -10.2819 1.7894 0 220 0
19.8799 -10.2819 1.8058 0 220 0
19.8799 -10.2819 1.8223 0 220 0
19.8799 -10.2819 1.8388 0 220 0
19.8799 -10.2819 1.8553 0 220 0
19.8799 -10.2819 1.8717 0 220 0
19.8799 -10.2819 1.8882 0 220 0
20.1115 -8.5897 0.2572 0 220 0
20.1115 -8.5897 0.2737 0 220 0
20.1115 -8.5897 0.2902 0 220 0
20.1115 -8.5897 0.3066 0 220 0
20.1115 -8.5897 0.3231 0 220 0
20.1115 -8.5897 0.3396 0 220 0
20.1115 -8.5897 0.3561 0 220 0
20.1115 -8.5897 0.3725 0 220 0
20.1115 -8.5897 0.3890 0 220 0
20.1115 -8.5897 0.4055 0 220 0
20.1115 -8.5897 0.4220 0 220 0
20.1115 -8.5897 0.4384 0 220 0
20.1115 -8.5897 0.4549 0 220 0
20.1115 -8.5897 0.4714 0 220 0
20.1115 -8.5897 0.4879 0 220 0
20.1115 -8.5897 0.5043 0 220 0
20.1115 -8.5897 0.5208 0 220 0
20.1115 -8.5897 0.5373 0 220 0
20.1115 -8.5897 0.5538 0 220 0
20.1115 -8.5897 0.5702 0 220 0
20.1115 -8.5897 0.5867 0 220 0
20.1115 -8.5897 0.6032 0 220 0
20.1115 -8.5897 0.6197 0 220 0
20.1115 -8.5897 0.6361 0 220 0
20.1115 -8.5897 0.6526 0 220 0
20.1115 -8.5897 0.6691 0 220 0
20.1115 -8.5897 0.6856 0 220 0
20.1115 -8.5897 0.7020 0 220 0
20.1115 -8.5897 0.7185 0 220 0
20.1115 -8.5897 0.7350 0 220 0
20.1115 -8.5897 0.7514 0 220 0
20.1115 -8.5897 0.7679 0 220 0
20.1115 -8.5897 0.7844 0 220 0
20.1115 -8.5897 0.8009 0 220 0
20.1115 -8.5897 0.8173 0 220 0
20.1115 -8.5897 0.8338 0 220 0
20.1115 -8.5897 0.8503 0 220 0
20.1115 -8.5897 0.8668 0 220 0
20.1115 -8.5897 0.8832 0 220 0
20.1115 -8.5897 0.8997 0 220 0
20.1115 -8.5897 0.9162 0 220 0
20.1115 -8.5897 0.9327 0 220 0
20.1115 -8.5897 0.9491 0 220 0
20.1115 -8.5897 0.9656 0 220 0
20.1115 -8.5897 0.9821 0 220 0
20.1115 -8.5897 0.9986 0 220 0
20.1115 -8.5897 1.0150 0 220 0
20.1115 -8.5897 1.0315 0 220 0
20.1115 -8.5897 1.0480 0 220 0
20.1115 -8.5897 1.0645 0 220 0
20.1115 -8.5897 1.0809 0 220 0
20.1115 -8.5897 1.0974 0 220 0
20.1115 -8.5897 1.1139 0 220 0
20.1115 -8.5897 1.1304 0 220 0
20.1115 -8.5897 1.1468 0 220 0
20.1115 -8.5897 1.1633 0 220 0
20.1115 -8.5897 1.1798 0 220 0
20.1115 -8.5897 1.1963 0 220 0
20.1115 -8.5897 1.2127 0 220 0
20.1115 -8.5897 1.2292 0 220 0
20.1115 -8.5897 1.2457 0 220 0
20.1115 -8.5897 1.2622 0 220 0
20.1115 -8.5897 1.2786 0 220 0
20.1115 -8.5897 1.2951 0 220 0
20.1115 -8.5897 1.3116 0 220 0
20.1115 -8.5897 1.3281 0 220 0
20.1115 -8.5897 1.3445 0 220 0
20.1115 -8.5897 1.3610 0 220 0
20.1115 -8.5897 1.3775 0 220 0
20.1115 -8.5897 1.3940 0 220 0
20.1115 -8.5897 1.4104 0 220 0
20.1115 -8.5897 1.4269 0 220 0
20.1115 -8.5897 1.4434 0 220 0
20.1115 -8.5897 1.4599 0 220 0
20.1115 -8.5897 1.4763 0 220 0
20.1115 -8.5897 1.4928 0 220 0
20.1115 -8.5897 1.5093 0 220 0
20.1115 -8.5897 1.5258 0 220 0
20.1115 -8.5897 1.5422 0 220 0
20.1115 -8.5897 1.5587 0 220 0
20.1115 -8.5897 1.5752 0 220 0
20.1115 -8.5897 1.5917 0 220 0
20.1115 -8.5897 1.6081 0 220 0
20.1115 -8.5897 1.6246 0 220 0
20.1115 -8.5897 1.6411 0 220 0
20.1115 -8.5897 1.6576 0 220 0
20.1115 -8.5897 1.6740 0 220 0
20.1115 -8.5897 1.6905 0 220 0
20.1115 -8.5897 1.7070 0 220 0
20.1115 -8.5897 1.7235 0 220 0
20.1115 -8.5897 1.7399 0 220 0
20.1115 -8.5897 1.7564 0 220 0
20.1115 -8.5897 1.7729 0 220 0
20.1115 -8.5897 1.7894 0 220 0
20.1115 -8.5897 1.8058 0 220 0
20.1115 -8.5897 1.8223 0 220 0
20.1115 -8.5897 1.8388 0 220 0
20.1115 -8.5897 1.8553 0 220 0
20.1115 -8.5897 1.8717 0 220 0
20.1115 -8.5897 1.8882 0 220 0
16.1386 -8.0460 0.2572 0 220 0
16.1386 -8.0460 0.2737 0 220 0
16.1386 -8.0460 0.2902 0 220 0
16.1386 -8.0460 0.3066 0 220 0
16.1386 -8.0460 0.3231 0 220 0
16.1386 -8.0460 0.3396 0 220 0
16.1386 -8.0460 0.3561 0 220 0
16.1386 -8.0460 0.3725 0 220 0
16.1386 -8.0460 0.3890 0 220 0
16.1386 -8.0460 0.4055 0 220 0
16.1386 -8.0460 0.4220 0 220 0
16.1386 -8.0460 0.4384 0 220 0
16.1386 -8.0460 0.4549 0 220 0
16.1386 -8.0460 0.4714 0 220 0
16.1386 -8.0460 0.4879 0 220 0
16.1386 -8.0460 0.5043 0 220 0
16.1386 -8.0460 0.5208 0 220 0
16.1386 -8.0460 0.5373 0 220 0
16.1386 -8.0460 0.5538 0 220 0
16.1386 -8.0460 0.5702 0 220 0
16.1386 -8.0460 0.5867 0 220 0
16.1386 -8.0460 0.6032 0 220 0
16.1386 -8.0460 0.6197 0 220 0
16.1386 -8.0460 0.6361 0 220 0
16.1386 -8.0460 0.6526 0 220 0
16.1386 -8.0460 0.6691 0 220 0
16.1386 -8.0460 0.6856 0 220 0
16.1386 -8.0460 0.7020 0 220 0
16.1386 -8.0460 0.7185 0 220 0
16.1386 -8.0460 0.7350 0 220 0
16.1386 -8.0460 0.7514 0 220 0
16.1386 -8.0460 0.7679 0 220 0
16.1386 -8.0460 0.7844 0 220 0
16.1386 -8.0460 0.8009 0 220 0
16.1386 -8.0460 0.8173 0 220 0
16.1386 -8.0460 0.8338 0 220 0
16.1386 -8.0460 0.8503 0 220 0
16.1386 -8.0460 0.8668 0 220 0
16.1386 -8.0460 0.8832 0 220 0
16.1386 -8.0460 0.8997 0 220 0
16.1386 -8.0460 0.9162 0 220 0
16.1386 -8.0460 0.9327 0 220 0
16.1386 -8.0460 0.9491 0 220 0
16.1386 -8.0460 0.9656 0 220 0
16.1386 -8.0460 0.9821 0 220 0
16.1386 -8.0460 0.9986 0 220 0
16.1386 -8.0460 1.0150 0 220 0
16.1386 -8.0460 1.0315 0 220 0
16.1386 -8.0460 1.0480 0 220 0
16.1386 -8.0460 1.0645 0 220 0
16.1386 -8.0460 1.0809 0 220 0
16.1386 -8.0460 1.0974 0 220 0
16.1386 -8.0460 1.1139 0 220 0
16.1386 -8.0460 1.1304 0 220 0
16.1386 -8.0460 1.1468 0 220 0
16.1386 -8.0460 1.1633 0 220 0
16.1386 -8.0460 1.1798 0 220 0
16.1386 -8.0460 1.1963 0 220 0
16.1386 -8.0460 1.2127 0 220 0
16.1386 -8.0460 1.2292 0 220 0
16.1386 -8.0460 1.2457 0 220 0
16.1386 -8.0460 1.2622 0 220 0
16.1386 -8.0460 1.2786 0 220 0
16.1386 -8.0460 1.2951 0 220 0
16.1386 -8.0460 1.3116 0 220 0
16.1386 -8.0460 1.3281 0 220 0
16.1386 -8.0460 1.3445 0 220 0
16.1386 -8.0460 1.3610 0 220 0
16.1386 -8.0460 1.3775 0 220 0
16.1386 -8.0460 1.3940 0 220 0
16.1386 -8.0460 1.4104 0 220 0
16.1386 -8.0460 1.4269 0 220 0
16.1386 -8.0460 1.4434 0 220 0
16.1386 -8.0460 1.4599 0 220 0
16.1386 -8.0460 1.4763 0 220 0
16.1386 -8.0460 1.4928 0 220 0
16.1386 -8.0460 1.5093 0 220 0
16.1386 -8.0460 1.5258 0 220 0
16.1386 -8.0460 1.5422 0 220 0
16.1386 -8.0460 1.5587 0 220 0
16.1386 -8.0460 1.5752 0 220 0
16.1386 -8.0460 1.5917 0 220 0
16.1386 -8.0460 1.6081 0 220 0
16.1386 -8.0460 1.6246 0 220 0
16.1386 -8.0460 1.6411 0 220 0
16.1386 -8.0460 1.6576 0 220 0
16.1386 -8.0460 1.6740 0 220 0
16.1386 -8.0460 1.6905 0 220 0
16.1386 -8.0460 1.7070 0 220 0
16.1386 -8.0460 1.7235 0 220 0
16.1386 -8.0460 1.7399 0 220 0
16.1386 -8.0460 1.7564 0 220 0
16.1386 -8.0460 1.7729 0 220 0
16.1386 -8.0460 1.7894 0 220 0
16.1386 -8.0460 1.8058 0 220 0
16.1386 -8.0460 1.8223 0 220 0
16.1386 -8.0460 1.8388 0 220 0
16.1386 -8.0460 1.8553 0 220 0
16.1386 -8.0460 1.8717 0 220 0
16.1386 -8.0460 1.8882 0 220 0
15.9840 -9.8809 0.3716 100 150 255
16.0254 -9.8872 0.3716 100 150 255
16.0667 -9.8936 0.3716 100 150 255
16.1081 -9.8999 0.3716 100 150 255
16.1494 -9.9063 0.3716 100 150 255
16.1908 -9.9126 0.3716 100 150 255
16.2321 -9.9190 0.3716 100 150 255
16.2735 -9.9253 0.3716 100 150 255
16.3148 -9.9316 0.3716 100 150 255
16.3562 -9.9380 0.3716 100 150 255
16.3975 -9.9443 0.3716 100 150 255
16.4389 -9.9507 0.3716 100 150 255
16.4802 -9.9570 0.3716 100 150 255
16.5216 -9.9633 0.3716 100 150 255
16.5630 -9.9697 0.3716 100 150 255
16.6043 -9.9760 0.3716 100 150 255
16.6457 -9.9824 0.3716 100 150 255
16.6870 -9.9887 0.3716 100 150 255
16.7284 -9.9950 0.3716 100 150 255
16.7697 -10.0014 0.3716 100 150 255
16.8111 -10.0077 0.3716 100 150 255
16.8524 -10.0141 0.3716 100 150 255
16.8938 -10.0204 0.3716 100 150 255
16.9351 -10.0267 0.3716 100 150 255
16.9765 -10.0331 0.3716 100 150 255
17.0178 -10.0394 0.3716 100 150 255
17.0592 -10.0458 0.3716 100 150 255
17.1005 -10.0521 0.3716 100 150 255
17.1419 -10.0584 0.3716 100 150 255
17.1832 -10.0648 0.3716 100 150 255
17.2246 -10.0711 0.3716 100 150 255
17.2659 -10.0775 0.3716 100 150 255
17.3073 -10.0838 0.3716 100 150 255
17.3487 -10.0901 0.3716 100 150 255
17.3900 -10.0965 0.3716 100 150 255
17.4314 -10.1028 0.3716 100 150 255
17.4727 -10.1092 0.3716 100 150 255
17.5141 -10.1155 0.3716 100 150 255
17.5554 -10.1218 0.3716 100 150 255
17.5968 -10.1282 0.3716 100 150 255
17.6381 -10.1345 0.3716 100 150 255
17.6795 -10.1409 0.3716 100 150 255
17.7208 -10.1472 0.3716 100 150 255
17.7622 -10.1536 0.3716 100 150 255
17.8035 -10.1599 0.3716 100 150 255
17.8449 -10.1662 0.3716 100 150 255
17.8862 -10.1726 0.3716 100 150 255
17.9276 -10.1789 0.3716 100 150 255
17.9689 -10.1853 0.3716 100 150 255
18.0103 -10.1916 0.3716 100 150 255
18.0517 -10.1979 0.3716 100 150 255
18.0930 -10.2043 0.3716 100 150 255
18.1344 -10.2106 0.3716 100 150 255
18.1757 -10.2170 0.3716 100 150 255
18.2171 -10.2233 0.3716 100 150 255
18.2584 -10.2296 0.3716 100 150 255
18.2998 -10.2360 0.3716 100 150 255
18.3411 -10.2423 0.3716 100 150 255
18.3825 -10.2487 0.3716 100 150 255
18.4238 -10.2550 0.3716 100 150 255
18.4652 -10.2613 0.3716 100 150 255
18.5065 -10.2677 0.3716 100 150 255
18.5479 -10.2740 0.3716 100 150 255
18.5892 -10.2804 0.3716 100 150 255
18.6306 -10.2867 0.3716 100 150 255
18.6719 -10.2930 0.3716 100 150 255
18.7133 -10.2994 0.3716 100 150 255
18.7547 -10.3057 0.3716 100 150 255
18.7960 -10.3121 0.3716 100 150 255
18.8374 -10.3184 0.3716 100 150 255
18.8787 -10.3247 0.3716 100 150 255
18.9201 -10.3311 0.3716 100 150 255
18.9614 -10.3374 0.3716 100 150 255
19.0028 -10.3438 0.3716 100 150 255
19.0441 -10.3501 0.3716 100 150 255
19.0855 -10.3564 0.3716 100 150 255
19.1268 -10.3628 0.3716 100 150 255
19.1682 -10.3691 0.3716 100 150 255
19.2095 -10.3755 0.3716 100 150 255
19.2509 -10.3818 0.3716 100 150 255
19.2922 -10.3881 0.3716 100 150 255
19.3336 -10.3945 0.3716 100 150 255
19.3749 -10.4008 0.3716 100 150 255
19.4163 -10.4072 0.3716 100 150 255
19.4576 -10.4135 0.3716 100 150 255
19.4990 -10.4199 0.3716 100 150 255
19.5404 -10.4262 0.3716 100 150 255
19.5817 -10.4325 0.3716 100 150 255
19.6231 -10.4389 0.3716 100 150 255
19.6644 -10.4452 0.3716 100 150 255
19.7058 -10.4516 0.3716 100 150 255
19.7471 -10.4579 0.3716 100 150 255
19.7885 -10.4642 0.3716 100 150 255
19.8298 -10.4706 0.3716 100 150 255
19.8712 -10.4769 0.3716 100 150 255
19.9125 -10.4833 0.3716 100 150 255
19.9539 -10.4896 0.3716 100 150 255
19.9952 -10.4959 0.3716 100 150 255
20.0366 -10.5023 0.3716 100 150 255
20.0779 -10.5086 0.3716 100 150 255
20.0779 -10.5086 0.3716 100 150 255
20.0803 -10.4930 0.3716 100 150 255
20.0827 -10.4774 0.3716 100 150 255
20.0851 -10.4618 0.3716 100 150 255
20.0875 -10.4461 0.3716 100 150 255
20.0899 -10.4305 0.3716 100 150 255
20.0923 -10.4149 0.3716 100 150 255
20.0947 -10.3993 0.3716 100 150 255
20.0971 -10.3837 0.3716 100 150 255
20.0995 -10.3681 0.3716 100 150 255
20.1019 -10.3524 0.3716 100 150 255
20.1043 -10.3368 0.3716 100 150 255
20.1067 -10.3212 0.3716 100 150 255
20.1091 -10.3056 0.3716 100 150 255
20.1115 -10.2900 0.3716 100 150 255
20.1139 -10.2744 0.3716 100 150 255
20.1163 -10.2587 0.3716 100 150 255
20.1186 -10.2431 0.3716 100 150 255
20.1210 -10.2275 0.3716 100 150 255
20.1234 -10.2119 0.3716 100 150 255
20.1258 -10.1963 0.3716 100 150 255
20.1282 -10.1807 0.3716 100 150 255
20.1306 -10.1650 0.3716 100 150 255
20.1330 -10.1494 0.3716 100 150 255
20.1354 -10.1338 0.3716 100 150 255
20.1378 -10.1182 0.3716 100 150 255
20.1402 -10.1026 0.3716 100 150 255
20.1426 -10.0870 0.3716 100 150 255
20.1450 -10.0713 0.3716 100 150 255
20.1474 -10.0557 0.3716 100 150 255
20.1498 -10.0401 0.3716 100 150 255
20.1522 -10.0245 0.3716 100 150 255
20.1546 -10.0089 0.3716 100 150 255
20.1570 -9.9933 0.3716 100 150 255
20.1594 -9.9776 0.3716 100 150 255
20.1617 -9.9620 0.3716 100 150 255
20.1641 -9.9464 0.3716 100 150 255
20.1665 -9.9308 0.3716 100 150 255
20.1689 -9.9152 0.3716 100 150 255
20.1713 -9.8995 0.3716 100 150 255
20.1737 -9.8839 0.3716 100 150 255
20.1761 -9.8683 0.3716 100 150 255
20.1785 -9.8527 0.3716 100 150 255
20.1809 -9.8371 0.3716 100 150 255
20.1833 -9.8215 0.3716 100 150 255
20.1857 -9.8058 0.3716 100 150 255
20.1881 -9.7902 0.3716 100 150 255
20.1905 -9.7746 0.3716 100 150 255
20.1929 -9.7590 0.3716 100 150 255
20.1953 -9.7434 0.3716 100 150 255
20.1977 -9.7278 0.3716 100 150 255
20.2001 -9.7121 0.3716 100 150 255
20.2025 -9.6965 0.3716 100 150 255
20.2048 -9.6809 0.3716 100 150 255
20.2072 -9.6653 0.3716 100 150 255
20.2096 -9.6497 0.3716 100 150 255
20.2120 -9.6341 0.3716 100 150 255
20.2144 -9.6184 0.3716 100 150 255
20.2168 -9.6028 0.3716 100 150 255
20.2192 -9.5872 0.3716 100 150 255
20.2216 -9.5716 0.3716 100 150 255
20.2240 -9.5560 0.3716 100 150 255
20.2264 -9.5404 0.3716 100 150 255
20.2288 -9.5247 0.3716 100 150 255
20.2312 -9.5091 0.3716 100 150 255
20.2336 -9.4935 0.3716 100 150 255
20.2360 -9.4779 0.3716 100 150 255
20.2384 -9.4623 0.3716 100 150 255
20.2408 -9.4467 0.3716 100 150 255
20.2432 -9.4310 0.3716 100 150 255
20.2456 -9.4154 0.3716 100 150 255
20.2480 -9.3998 0.3716 100 150 255
20.2503 -9.3842 0.3716 100 150 255
20.2527 -9.3686 0.3716 100 150 255
20.2551 -9.3529 0.3716 100 150 255
20.2575 -9.3373 0.3716 100 150 255
20.2599 -9.3217 0.3716 100 150 255
20.2623 -9.3061 0.3716 100 150 255
20.2647 -9.2905 0.3716 100 150 255
20.2671 -9.2749 0.3716 100 150 255
20.2695 -9.2592 0.3716 100 150 255
20.2719 -9.2436 0.3716 100 150 255
20.2743 -9.2280 0.3716 100 150 255
20.2767 -9.2124 0.3716 100 150 255
20.2791 -9.1968 0.3716 100 150 255
20.2815 -9.1812 0.3716 100 150 255
20.2839 -9.1655 0.3716 100 150 255
20.2863 -9.1499 0.3716 100 150 255
20.2887 -9.1343 0.3716 100 150 255
20.2911 -9.1187 0.3716 100 150 255
20.2934 -9.1031 0.3716 100 150 255
20.2958 -9.0875 0.3716 100 150 255
20.2982 -9.0718 0.3716 100 150 255
20.3006 -9.0562 0.3716 100 150 255
20.3030 -9.0406 0.3716 100 150 255
20.3054 -9.0250 0.3716 100 150 255
20.3078 -9.0094 0.3716 100 150 255
20.3102 -8.9938 0.3716 100 150 255
20.3126 -8.9781 0.3716 100 150 255
20.3150 -8.9625 0.3716 100 150 255
20.3150 -8.9625 0.3716 100 150 255
20.2736 -8.9562 0.3716 100 150 255
20.2323 -8.9498 0.3716 100 150 255
20.1909 -8.9435 0.3716 100 150 255
20.1496 -8.9372 0.3716 100 150 255
20.1082 -8.9308 0.3716 100 150 255
20.0669 -8.9245 0.3716 100 150 255
20.0255 -8.9181 0.3716 100 150 255
19.9842 -8.9118 0.3716 100 150 255
19.9428 -8.9055 0.3716 100 150 255
19.9015 -8.8991 0.3716 100 150 255
19.8601 -8.8928 0.3716 100 150 255
19.8188 -8.8864 0.3716 100 150 255
19.7774 -8.8801 0.3716 100 150 255
19.7361 -8.8738 0.3716 100 150 255
19.6947 -8.8674 0.3716 100 150 255
19.6534 -8.8611 0.3716 100 150 255
19.6120 -8.8547 0.3716 100 150 255
19.5706 -8.8484 0.3716 100 150 255
19.5293 -8.8420 0.3716 100 150 255
19.4879 -8.8357 0.3716 100 150 255
19.4466 -8.8294 0.3716 100 150 255
19.4052 -8.8230 0.3716 100 150 255
19.3639 -8.8167 0.3716 100 150 255
19.3225 -8.8103 0.3716 100 150 255
19.2812 -8.8040 0.3716 100 150 255
19.2398 -8.7977 0.3716 100 150 255
19.1985 -8.7913 0.3716 100 150 255
19.1571 -8.7850 0.3716 100 150 255
19.1158 -8.7786 0.3716 100 150 255
19.0744 -8.7723 0.3716 100 150 255
19.0331 -8.7660 0.3716 100 150 255
18.9917 -8.7596 0.3716 100 150 255
18.9504 -8.7533 0.3716 100 150 255
18.9090 -8.7469 0.3716 100 150 255
18.8677 -8.7406 0.3716 100 150 255
18.8263 -8.7343 0.3716 100 150 255
18.7849 -8.7279 0.3716 100 150 255
18.7436 -8.7216 0.3716 100 150 255
18.7022 -8.7152 0.3716 100 150 255
18.6609 -8.7089 0.3716 100 150 255
18.6195 -8.7026 0.3716 100 150 255
18.5782 -8.6962 0.3716 100 150 255
18.5368 -8.6899 0.3716 100 150 255
18.4955 -8.6835 0.3716 100 150 255
18.4541 -8.6772 0.3716 100 150 255
18.4128 -8.6709 0.3716 100 150 255
18.3714 -8.6645 0.3716 100 150 255
18.3301 -8.6582 0.3716 100 150 255
18.2887 -8.6518 0.3716 100 150 255
18.2474 -8.6455 0.3716 100 150 255
18.2060 -8.6392 0.3716 100 150 255
18.1647 -8.6328 0.3716 100 150 255
