ply
format ascii 1.0
element vertex 1531
property float x
property float y
property float z
property uchar red
property uchar green
property uchar blue
end_header
0.1599 0.4108 1.4837 60 60 60
0.2166 -4.4981 1.7534 60 60 60
0.4083 -3.3908 -0.0719 60 60 60
-4.6106 -4.5581 2.2490 60 60 60
5.0196 4.5925 0.0200 60 60 60
0.4909 -0.4657 1.5030 60 60 60
-1.8438 -4.1160 -0.1003 60 60 60
5.5232 -1.4788 -0.0523 60 60 60
-0.0391 -3.5590 -0.0797 60 60 60
0.9655 0.0003 1.8398 60 60 60
-6.4003 -4.2164 3.3637 60 60 60
4.4387 3.8331 0.0279 60 60 60
0.4977 0.3824 1.5112 60 60 60
0.9403 0.0005 1.8392 60 60 60
-10.4349 -3.7977 1.2360 60 60 60
0.0107 3.4452 0.0048 60 60 60
0.2439 0.3468 1.5037 60 60 60
2.0258 -8.5324 0.3478 60 60 60
-6.1324 3.2267 -0.0352 60 60 60
-2.1471 10.5293 2.2710 60 60 60
-8.3146 -3.7608 -0.0935 60 60 60
0.9655 0.0003 1.8398 60 60 60
1.7092 3.6772 0.0095 60 60 60
3.0441 -7.5937 -0.1575 60 60 60
-1.6651 -3.6902 1.7380 60 60 60
0.1625 -0.0827 1.5087 60 60 60
5.1232 2.8967 0.0204 60 60 60
-3.7440 -3.2165 0.1468 60 60 60
-6.2483 -9.7960 -0.1377 60 60 60
1.0611 5.9491 -0.0188 60 60 60
-1.7264 -3.6208 0.0924 60 60 60
-0.6389 3.4942 0.0105 60 60 60
1.0578 4.0968 0.0080 60 60 60
10.4072 6.4457 0.0615 60 60 60
5.5765 2.8837 0.0241 60 60 60
-1.0572 2.8535 0.0031 60 60 60
1.4127 0.3816 1.5299 60 60 60
1.0239 -0.4297 1.5790 60 60 60
-2.8358 10.8941 3.1284 60 60 60
5.4695 0.8961 0.0193 60 60 60
8.2345 9.2909 2.0730 60 60 60
2.6185 -11.0646 3.8397 60 60 60
-12.0957 13.8047 5.1714 60 60 60
-9.0652 -2.2201 0.6185 60 60 60
1.8944 3.6023 0.0112 60 60 60
-2.2322 8.1939 -0.0657 60 60 60
0.9400 0.0006 1.8392 60 60 60
7.8595 -7.3330 0.5519 60 60 60
5.1666 5.5358 -0.0227 60 60 60
0.3684 0.4518 1.4994 60 60 60
4.8827 -4.3248 1.7808 60 60 60
1.3892 0.0107 1.5190 60 60 60
3.2884 2.9314 0.0141 60 60 60
14.4778 8.7942 0.4743 60 60 60
0.9381 0.0007 1.8392 60 60 60
1.2524 -3.5567 -0.0963 60 60 60
6.7724 7.9464 2.7402 60 60 60
-7.0515 12.2135 1.5646 60 60 60
-1.2676 7.4164 -0.0568 60 60 60
-2.5579 3.3460 0.0082 60 60 60
-1.5356 3.6530 0.0153 60 60 60
-9.7244 13.0197 2.7637 60 60 60
0.9482 0.0005 1.8394 60 60 60
0.9552 0.0004 1.8395 60 60 60
-0.4301 4.7330 0.0002 60 60 60
4.9233 -10.7194 0.5552 60 60 60
0.2768 -8.7747 0.3982 60 60 60
-3.2042 -4.6716 1.1420 60 60 60
-9.7848 15.6504 4.6139 60 60 60
0.7827 3.1134 0.0123 60 60 60
0.3302 -3.3802 -0.0683 60 60 60
7.6179 -4.3298 1.1437 60 60 60
-1.7217 13.4586 4.6001 60 60 60
0.9148 0.0009 1.8386 60 60 60
6.4519 -10.4678 3.4984 60 60 60
1.5493 0.2906 1.4497 60 60 60
1.8581 -3.3553 -0.0862 60 60 60
1.3578 0.5141 1.5131 60 60 60
8.7025 -10.2617 0.8508 60 60 60
-0.4506 -3.7129 -0.0851 60 60 60
4.5926 -5.5235 0.2318 60 60 60
-6.5300 -0.4384 0.7805 60 60 60
-1.9127 -4.0655 -0.0954 60 60 60
3.7591 -8.2285 0.0378 60 60 60
0.8731 0.0014 1.8375 60 60 60
1.4882 0.2225 1.4728 60 60 60
1.4690 -3.7277 -0.1013 60 60 60
1.4731 0.1094 1.4786 60 60 60
-25.3674 -18.4738 2.9997 60 60 60
1.7791 -3.6158 -0.0938 60 60 60
0.1225 -0.2986 1.4942 60 60 60
-3.3642 -11.4086 3.1456 60 60 60
5.1924 0.6868 0.0200 60 60 60
-0.6872 -2.9068 -0.0463 60 60 60
-0.5542 5.5537 -0.0120 60 60 60
-2.1949 12.5742 3.8524 60 60 60
1.2750 -0.4280 1.4922 60 60 60
-7.2538 -11.7706 4.2081 60 60 60
-0.7210 5.5294 -0.0115 60 60 60
4.2733 -7.7815 -0.1491 60 60 60
-0.3918 9.9821 2.4039 60 60 60
2.0527 9.1936 2.6676 60 60 60
0.2262 -4.7732 -0.1560 60 60 60
-1.0161 2.8640 0.0091 60 60 60
-2.5100 -6.6053 -0.1471 60 60 60
4.9928 -22.9535 1.5918 60 60 60
3.6795 8.6605 1.7266 60 60 60
-14.8952 -5.4828 -0.1862 60 60 60
1.1309 -3.3437 -0.0719 60 60 60
3.3620 8.7425 1.5298 60 60 60
3.3323 3.1990 0.0209 60 60 60
0.0540 -11.3099 0.7895 60 60 60
10.5985 8.4562 3.5201 60 60 60
-1.4490 -3.7122 1.2158 60 60 60
-1.3009 -9.0543 0.3857 60 60 60
0.9452 0.0005 1.8393 60 60 60
0.2753 5.6025 -0.0153 60 60 60
0.9355 0.0006 1.8391 60 60 60
7.0814 -4.3427 1.7186 60 60 60
4.5071 2.6164 0.0197 60 60 60
5.4557 -20.5878 2.0666 60 60 60
1.6925 5.7387 -0.0033 60 60 60
1.0678 -3.5812 -0.0915 60 60 60
6.2271 5.2489 -0.0055 60 60 60
-15.5509 14.8577 0.0577 60 60 60
0.8799 0.0013 1.8377 60 60 60
0.3214 0.3601 1.5082 60 60 60
2.3235 -3.3564 -0.0869 60 60 60
12.7408 8.5327 1.6515 60 60 60
4.8952 5.8635 -0.0336 60 60 60
0.9368 0.0006 1.8391 60 60 60
0.9582 0.0003 1.8396 60 60 60
0.5282 3.9125 0.0132 60 60 60
0.8734 0.0013 1.8375 60 60 60
-4.1977 -11.5081 2.6324 60 60 60
1.1116 -3.3541 -0.0760 60 60 60
0.8907 0.0011 1.8380 60 60 60
-4.6866 5.1193 -0.0527 60 60 60
2.5980 -0.5234 0.9939 60 60 60
8.0547 -4.1534 -0.0769 60 60 60
-4.2751 13.4808 3.4763 60 60 60
5.4497 -10.6324 2.4109 60 60 60
7.0870 -10.4573 0.9595 60 60 60
-4.2406 -11.5379 1.7520 60 60 60
1.8329 0.2504 1.3429 60 60 60
1.8469 -0.3182 1.3320 60 60 60
0.9455 0.0005 1.8393 60 60 60
1.3998 0.0330 1.4941 60 60 60
5.4791 -15.2173 1.5894 60 60 60
1.5003 -0.2440 1.4696 60 60 60
5.4713 5.0802 -0.0020 60 60 60
0.9270 0.0008 1.8389 60 60 60
12.4714 8.5452 3.6822 60 60 60
-1.1984 -4.0911 -0.1126 60 60 60
3.1514 -4.6415 -0.1722 60 60 60
2.6651 3.7139 0.0214 60 60 60
3.7053 8.1036 0.0998 60 60 60
-8.1921 4.1784 -0.0906 60 60 60
3.9145 3.4063 0.0196 60 60 60
-15.7890 2.2324 -0.1422 60 60 60
0.9604 0.0003 1.8396 60 60 60
-4.7185 6.1306 -0.0535 60 60 60
0.3015 -3.8548 -0.1015 60 60 60
-1.0881 7.4361 -0.0574 60 60 60
-14.6895 -6.5594 0.9626 60 60 60
0.9422 0.0005 1.8393 60 60 60
1.1528 4.0852 0.0053 60 60 60
5.9275 -19.9650 2.0350 60 60 60
3.3950 4.2958 0.0299 60 60 60
-5.7799 1.7951 0.0059 60 60 60
0.4187 -0.2918 1.5161 60 60 60
5.5981 2.8591 0.0214 60 60 60
0.8962 0.0011 1.8381 60 60 60
5.5653 -0.3144 0.0066 60 60 60
-0.2298 9.9535 3.1008 60 60 60
-5.0689 -11.5895 2.3871 60 60 60
0.8626 8.3899 0.0867 60 60 60
0.2222 0.2438 1.5144 60 60 60
1.4335 -3.5138 -0.0961 60 60 60
-4.8290 -11.5488 3.8931 60 60 60
2.2729 -3.1426 -0.0786 60 60 60
4.2853 3.4682 0.0216 60 60 60
-1.4993 10.3457 2.4823 60 60 60
-6.4120 12.1400 3.2135 60 60 60
0.6518 6.0758 -0.0241 60 60 60
-8.2228 -9.5405 -0.2466 60 60 60
-5.4180 -0.9673 -0.0171 60 60 60
-18.2040 4.0362 -0.0054 60 60 60
-5.0710 -4.4947 2.6302 60 60 60
4.2329 8.2908 2.9574 60 60 60
0.1943 4.7926 -0.0005 60 60 60
-4.5659 13.6790 4.5724 60 60 60
1.2909 0.5248 1.4727 60 60 60
-5.7552 -4.3129 2.5081 60 60 60
0.7662 -4.2545 -0.0646 60 60 60
-0.7720 10.2677 3.9204 60 60 60
4.2045 7.8778 0.0814 60 60 60
2.4280 9.0821 2.8630 60 60 60
-1.3595 4.4977 -0.0024 60 60 60
-5.6402 -11.6325 4.3148 60 60 60
-8.8887 -0.8434 1.3713 60 60 60
9.3092 8.3166 3.6922 60 60 60
4.2660 -3.4944 -0.1175 60 60 60
2.8802 -3.2464 -0.0862 60 60 60
-0.5505 -7.6195 -0.1444 60 60 60
7.5797 -7.4731 0.0946 60 60 60
-0.9023 3.1503 0.0099 60 60 60
6.1618 -10.5661 2.3950 60 60 60
10.0722 -5.2568 0.6596 60 60 60
0.4205 -0.3636 1.5137 60 60 60
2.0249 -6.5770 -0.1507 60 60 60
-10.1344 13.1451 1.9910 60 60 60
2.2109 9.1382 1.7947 60 60 60
5.0046 -4.3726 1.2172 60 60 60
0.2978 0.1489 1.5197 60 60 60
0.2374 -4.5080 1.6454 60 60 60
0.8707 0.0014 1.8375 60 60 60
-3.8754 -11.4450 4.3771 60 60 60
1.8967 -0.1389 1.3242 60 60 60
11.2231 8.4928 1.6924 60 60 60
0.9119 0.0009 1.8385 60 60 60
1.1791 9.4691 2.2850 60 60 60
3.2621 -4.0634 -0.1368 60 60 60
-2.1054 3.3009 0.0093 60 60 60
-4.8708 11.3048 1.5495 60 60 60
1.3609 0.2055 1.4917 60 60 60
4.0009 -6.7306 -0.0881 60 60 60
1.0021 -11.2747 3.6590 60 60 60
-10.7280 13.2422 2.4184 60 60 60
0.3431 3.9164 0.0097 60 60 60
0.9121 0.0009 1.8385 60 60 60
2.9830 3.8242 0.0236 60 60 60
-2.0050 -3.4705 1.0027 60 60 60
-7.6203 12.3196 1.9237 60 60 60
1.6053 0.1732 1.4403 60 60 60
0.9482 0.0005 1.8394 60 60 60
5.6214 -10.6600 0.5033 60 60 60
-0.1020 0.3198 1.4640 60 60 60
0.9468 0.4643 1.5806 60 60 60
1.7696 9.2489 0.5072 60 60 60
-0.1843 -3.5294 -0.0776 60 60 60
-2.0919 -3.3391 0.1071 60 60 60
26.0827 -20.8379 5.9765 60 60 60
-4.4202 -2.6486 -0.0701 60 60 60
4.6032 -4.3260 1.3906 60 60 60
0.9409 0.0005 1.8392 60 60 60
-0.4613 10.0801 1.4616 60 60 60
0.8959 0.0011 1.8381 60 60 60
4.6706 3.5455 0.0281 60 60 60
1.4847 0.0853 1.4743 60 60 60
0.0910 3.6646 0.0091 60 60 60
5.2149 -1.3532 -0.0462 60 60 60
4.2990 1.8542 0.0251 60 60 60
-3.2939 -8.0312 -0.1313 60 60 60
1.3203 -0.3759 1.4910 60 60 60
-14.0167 -6.4774 0.6125 60 60 60
0.3420 -3.1841 -0.0590 60 60 60
0.1759 3.0934 0.0042 60 60 60
-1.5466 -4.2807 -0.1091 60 60 60
2.1764 -6.5512 -0.1587 60 60 60
-2.0169 -11.4486 0.2827 60 60 60
1.7848 -8.5825 0.1467 60 60 60
-7.6607 1.5284 -0.0269 60 60 60
0.3105 9.6359 0.9983 60 60 60
0.5486 -3.8681 -0.1066 60 60 60
0.9520 0.0005 1.8395 60 60 60
5.9912 -10.5972 1.3042 60 60 60
1.7522 -3.8828 -0.1050 60 60 60
2.4445 -12.0410 0.6024 60 60 60
-14.2770 4.0358 -0.0217 60 60 60
6.1482 7.8643 1.3916 60 60 60
-1.3697 -3.0055 -0.0513 60 60 60
-2.4427 -11.3775 3.9184 60 60 60
0.8761 0.0013 1.8376 60 60 60
-0.7341 -3.9273 -0.1015 60 60 60
-4.3551 -4.6109 2.2333 60 60 60
-2.2657 10.7305 3.6027 60 60 60
0.1893 -3.8450 -0.0998 60 60 60
-0.2945 3.3790 0.0054 60 60 60
0.9558 0.0004 1.8395 60 60 60
2.0895 4.0527 0.0090 60 60 60
5.4610 2.1556 0.0255 60 60 60
2.6840 2.9128 0.0117 60 60 60
1.4216 -0.0891 1.4970 60 60 60
1.6774 9.2908 0.7290 60 60 60
8.4025 -10.2974 2.3580 60 60 60
0.9317 0.0007 1.8390 60 60 60
1.4191 0.1100 1.4921 60 60 60
-1.0691 10.2830 0.9871 60 60 60
-2.1251 4.1182 0.0031 60 60 60
6.2717 7.8870 2.0527 60 60 60
-4.7993 5.0441 -0.0571 60 60 60
6.2433 -1.9203 -0.0691 60 60 60
10.2745 -5.4825 -4.1891 60 60 60
0.9238 5.9793 -0.0201 60 60 60
0.8603 -4.5348 0.5264 60 60 60
0.0320 -0.1706 1.4990 60 60 60
-4.1662 -4.8640 1.7319 60 60 60
4.5851 -2.3302 -0.0737 60 60 60
-10.8646 7.6831 0.4329 60 60 60
-7.7537 -9.5893 -0.2153 60 60 60
4.2232 1.9972 0.0273 60 60 60
-2.1090 -11.2611 0.3097 60 60 60
0.9522 0.0005 1.8395 60 60 60
-3.2654 3.1904 0.0022 60 60 60
0.9414 0.0006 1.8392 60 60 60
1.2123 -4.0337 -0.1087 60 60 60
1.3942 0.1757 1.4962 60 60 60
4.8941 -8.0196 -0.0629 60 60 60
3.6771 3.2250 0.0221 60 60 60
0.9273 0.0007 1.8389 60 60 60
-0.3216 -4.2810 0.0280 60 60 60
4.7482 7.5188 0.0724 60 60 60
0.9568 0.0004 1.8396 60 60 60
1.3338 -0.3017 1.4912 60 60 60
5.1150 -2.7649 -0.0953 60 60 60
0.9352 0.0007 1.8391 60 60 60
0.9381 0.0007 1.8392 60 60 60
-7.3363 -11.7780 4.9148 60 60 60
-30.7171 19.7639 3.3585 60 60 60
0.0421 3.8937 0.0088 60 60 60
1.4138 -0.4153 1.5299 60 60 60
4.2245 -10.9308 0.5894 60 60 60
0.8758 0.0014 1.8376 60 60 60
-1.6505 5.8284 -0.0057 60 60 60
1.5016 9.3708 2.2660 60 60 60
25.8378 -21.6238 6.0387 60 60 60
0.9417 0.0005 1.8392 60 60 60
-5.2128 3.3302 -0.0308 60 60 60
0.5441 -3.2105 -0.0695 60 60 60
26.6392 -19.1398 5.8546 60 60 60
1.3339 8.2160 0.0815 60 60 60
0.8951 0.0011 1.8381 60 60 60
-0.4639 -4.4835 -0.0632 60 60 60
-1.4515 4.8952 -0.0084 60 60 60
0.4741 6.0812 -0.0207 60 60 60
-0.2155 -11.3292 2.6584 60 60 60
-1.6290 -3.7362 1.8413 60 60 60
1.9816 -4.5315 1.5599 60 60 60
0.9373 0.0007 1.8392 60 60 60
1.1853 0.4314 1.4973 60 60 60
14.4004 -11.6277 1.1884 60 60 60
-0.4631 3.7966 0.0102 60 60 60
2.8152 4.3052 0.0222 60 60 60
-74.0156 14.9998 -0.0013 60 60 60
0.9081 0.0010 1.8384 60 60 60
-5.2188 11.4180 0.9488 60 60 60
0.8699 0.0014 1.8374 60 60 60
2.3761 9.0009 2.2129 60 60 60
5.5884 -10.6181 2.4075 60 60 60
4.5844 6.2335 -0.0519 60 60 60
-11.7057 -7.3907 0.0057 60 60 60
0.9568 0.0004 1.8396 60 60 60
0.3102 -0.2255 1.5181 60 60 60
0.9373 0.0007 1.8392 60 60 60
1.8106 -11.1027 2.8084 60 60 60
-1.5201 -3.9118 -0.0965 60 60 60
-4.5734 11.4015 1.8352 60 60 60
-43.4894 14.1003 0.6726 60 60 60
3.5197 -2.9631 -0.0805 60 60 60
0.4620 0.3266 1.5166 60 60 60
0.2867 3.6838 0.0092 60 60 60
0.9552 0.0004 1.8395 60 60 60
0.1134 6.1072 -0.0231 60 60 60
-4.5602 4.1915 -0.0354 60 60 60
-1.8427 -6.7788 -0.1452 60 60 60
-2.3325 5.6130 -0.0103 60 60 60
-1.6233 -11.3307 0.8420 60 60 60
1.7623 -0.4477 1.3505 60 60 60
-5.1330 -4.4250 2.2813 60 60 60
-14.1188 14.7582 6.5885 60 60 60
0.9113 0.0010 1.8385 60 60 60
-3.3380 -11.5151 0.5711 60 60 60
-2.7588 3.6685 0.0045 60 60 60
1.4929 0.0189 1.5293 60 60 60
4.9565 -0.9366 -0.0164 60 60 60
1.3078 0.3053 1.4920 60 60 60
-3.8085 -11.4702 2.0260 60 60 60
1.9744 7.9804 0.0867 60 60 60
-4.3004 -1.8147 -0.0595 60 60 60
-2.5498 -4.7013 -0.1261 60 60 60
-9.2849 13.0227 3.9047 60 60 60
4.4952 -4.3380 1.7930 60 60 60
0.9772 -3.3751 -0.0767 60 60 60
-22.0517 9.8378 0.0161 60 60 60
0.4271 -0.4834 1.4944 60 60 60
1.4105 -0.0426 1.4885 60 60 60
-2.4916 -2.9359 0.0058 60 60 60
0.1928 -0.1360 1.5182 60 60 60
4.6329 -7.3991 -0.1243 60 60 60
4.5570 -4.3236 1.3942 60 60 60
0.9463 0.0005 1.8393 60 60 60
3.8811 -4.5475 -0.1676 60 60 60
-0.0117 -11.3150 0.7916 60 60 60
14.5638 8.8153 1.2287 60 60 60
1.2910 0.5316 1.4700 60 60 60
0.5391 0.4680 1.5100 60 60 60
0.9508 9.4270 1.4298 60 60 60
7.0757 -10.4354 3.8050 60 60 60
-0.8858 3.3943 0.0134 60 60 60
-0.1081 -4.1990 0.3041 60 60 60
-5.6977 11.4612 0.6357 60 60 60
0.9552 0.0004 1.8395 60 60 60
7.9217 -4.3091 0.1378 60 60 60
5.1024 1.1429 0.0224 60 60 60
-21.3288 16.7149 6.1961 60 60 60
-0.8472 3.6778 0.0103 60 60 60
1.3207 0.3094 1.5014 60 60 60
0.8753 0.0013 1.8376 60 60 60
8.0011 5.9494 -0.0143 60 60 60
5.1833 0.7633 0.0193 60 60 60
2.9440 -3.8784 -0.1173 60 60 60
4.0451 -4.3945 -0.1645 60 60 60
6.0799 7.8922 3.1661 60 60 60
-4.1793 -4.4364 1.4317 60 60 60
2.6603 4.8145 0.0171 60 60 60
1.1864 -8.6802 0.3741 60 60 60
0.9555 0.0004 1.8395 60 60 60
0.9463 0.0005 1.8393 60 60 60
4.0168 8.5667 3.2096 60 60 60
-4.9626 11.3642 3.3481 60 60 60
6.6154 -10.4696 3.7893 60 60 60
-7.1265 -11.7657 4.8803 60 60 60
10.8026 -6.2199 0.8194 60 60 60
0.9395 0.0006 1.8392 60 60 60
-6.6827 -1.7014 -0.0314 60 60 60
-0.7518 -11.3677 2.6903 60 60 60
0.2551 0.1590 1.5192 60 60 60
-2.1080 -5.0040 -0.1515 60 60 60
-8.0362 12.6035 3.7441 60 60 60
8.2408 8.2108 2.8056 60 60 60
-4.0214 2.9405 -0.0009 60 60 60
-0.8450 -8.9680 0.3945 60 60 60
1.5188 8.1480 0.0841 60 60 60
-1.5018 -6.8264 -0.1400 60 60 60
2.6306 -0.2512 1.0029 60 60 60
12.3260 8.5084 2.3280 60 60 60
-45.7812 27.4165 6.6122 60 60 60
1.2292 -0.4332 1.4921 60 60 60
5.4961 7.9464 1.4281 60 60 60
-6.7957 -0.9061 -0.0176 60 60 60
11.2533 -28.9039 7.0612 60 60 60
-3.0108 -3.1990 1.8940 60 60 60
2.0187 9.1632 0.2835 60 60 60
8.2707 -10.3145 0.5839 60 60 60
0.9593 0.0003 1.8396 60 60 60
0.9349 0.0007 1.8391 60 60 60
-8.7812 12.7207 2.3273 60 60 60
-2.2085 10.8768 4.1640 60 60 60
2.8223 8.9428 2.6209 60 60 60
1.2552 -7.2968 -0.1131 60 60 60
-10.1137 13.2444 1.5848 60 60 60
3.5669 8.7181 3.2308 60 60 60
0.1973 -0.1972 1.5142 60 60 60
8.1478 -10.3353 2.0679 60 60 60
0.2222 -8.8747 0.1686 60 60 60
3.3477 5.4967 -0.0062 60 60 60
0.5172 8.5045 0.0767 60 60 60
-8.3187 -0.8464 1.6141 60 60 60
-1.2926 10.3610 1.7293 60 60 60
0.5589 0.4353 1.5118 60 60 60
-6.3943 9.5226 -0.0509 60 60 60
0.9585 0.0004 1.8396 60 60 60
-4.0948 -4.5170 1.4285 60 60 60
-2.4253 2.6319 0.0046 60 60 60
1.5573 -0.3574 1.4398 60 60 60
0.8461 0.0016 1.8368 60 60 60
-3.0405 3.9987 -0.0021 60 60 60
-4.0083 3.8113 -0.0136 60 60 60
0.9782 -4.6266 1.8237 60 60 60
1.3253 -0.3382 1.5016 60 60 60
-27.3141 -8.3784 6.5891 60 60 60
0.6923 3.1070 0.0174 60 60 60
-5.2491 9.9107 -0.0405 60 60 60
1.4563 -4.5887 1.8017 60 60 60
16.6317 -12.9527 -0.3489 60 60 60
-4.2779 11.5500 3.9078 60 60 60
0.9539 0.0004 1.8395 60 60 60
-76.3004 17.8370 1.7555 60 60 60
0.7633 -11.2249 2.3405 60 60 60
-1.0363 8.9233 0.0183 60 60 60
-0.0033 -3.3350 -0.0645 60 60 60
3.3663 -10.9723 3.0120 60 60 60
-2.4100 -2.7979 -0.0498 60 60 60
3.2117 8.8263 3.2485 60 60 60
3.8377 -5.0952 -0.1619 60 60 60
0.9409 0.0005 1.8392 60 60 60
-5.4224 11.5149 2.7850 60 60 60
0.9170 0.0009 1.8387 60 60 60
-4.4910 11.4035 1.8322 60 60 60
-5.6159 2.2862 0.0029 60 60 60
0.8707 0.0014 1.8375 60 60 60
7.1290 -10.4120 3.2271 60 60 60
3.2212 -11.6446 0.5922 60 60 60
-1.7639 -11.3458 0.8442 60 60 60
-10.3334 -3.8387 1.5160 60 60 60
0.4712 0.0257 1.6116 60 60 60
0.9075 0.0010 1.8384 60 60 60
3.2281 -14.7043 0.6513 60 60 60
0.3262 -8.8518 0.1694 60 60 60
1.3739 0.1830 1.4890 60 60 60
1.4822 0.0998 1.4744 60 60 60
-0.1870 9.8819 1.6923 60 60 60
1.4881 -0.0712 1.4760 60 60 60
4.2325 -25.3033 2.2137 60 60 60
0.9129 0.0010 1.8386 60 60 60
0.9265 0.0007 1.8389 60 60 60
3.6348 6.9198 -0.0505 60 60 60
0.5268 -0.4616 1.4978 60 60 60
0.8980 0.0011 1.8382 60 60 60
-10.2449 -12.0728 4.6460 60 60 60
0.9449 0.0005 1.8393 60 60 60
-2.2120 -2.9855 -0.0501 60 60 60
5.8523 7.8471 2.0594 60 60 60
0.3073 -0.2226 1.5173 60 60 60
1.1654 9.4615 2.0633 60 60 60
-7.5095 12.4328 5.1230 60 60 60
-4.1362 7.5055 -0.0423 60 60 60
3.8720 -3.4335 -0.1066 60 60 60
-2.7264 -3.1688 0.9753 60 60 60
0.8896 0.0012 1.8380 60 60 60
-4.6826 -11.5488 3.2673 60 60 60
0.9368 0.0006 1.8391 60 60 60
0.9403 0.0005 1.8392 60 60 60
0.9335 0.0007 1.8391 60 60 60
-15.1528 -2.8968 -0.1002 60 60 60
-3.4648 -3.1130 1.2781 60 60 60
5.3558 -4.2443 -0.0071 60 60 60
-2.3156 -3.3866 1.4325 60 60 60
2.6741 8.9520 2.8417 60 60 60
-7.7056 -11.8285 4.2728 60 60 60
-2.4761 10.7445 1.2422 60 60 60
-2.3294 2.7135 0.0108 60 60 60
-6.4371 0.0712 0.4450 60 60 60
-10.0662 -12.1222 3.4609 60 60 60
-5.5416 -11.6187 4.3002 60 60 60
0.8712 0.0014 1.8375 60 60 60
6.5187 7.8679 2.9543 60 60 60
-0.9278 -6.3186 -0.1432 60 60 60
-0.8540 -3.8656 0.2572 60 60 60
9.2861 9.3920 1.1783 60 60 60
-3.2983 -11.4630 3.4351 60 60 60
9.9281 8.8713 1.4413 60 60 60
3.8259 -3.0087 -0.0866 60 60 60
5.6044 -14.7756 0.8603 60 60 60
-0.4018 -4.0122 -0.1025 60 60 60
1.6214 -6.1567 -0.1512 60 60 60
0.9097 9.4438 1.6523 60 60 60
0.1395 -0.4108 1.4807 60 60 60
-5.3371 -4.7282 1.5661 60 60 60
0.8772 0.0013 1.8376 60 60 60
-2.1338 -4.9822 -0.1482 60 60 60
3.7861 8.4225 2.9737 60 60 60
6.8711 7.9468 0.8802 60 60 60
1.4217 -0.0993 1.4960 60 60 60
2.2586 3.1950 0.0109 60 60 60
-6.0480 -11.7923 0.2059 60 60 60
-4.4593 -11.5393 2.6508 60 60 60
1.2088 -3.3461 -0.0814 60 60 60
1.0429 -11.2004 1.0193 60 60 60
-1.7351 4.3299 0.0012 60 60 60
-6.2058 -2.8527 -0.0243 60 60 60
0.9493 0.0005 1.8394 60 60 60
4.8783 0.9093 0.0208 60 60 60
13.7602 8.7653 2.7176 60 60 60
-3.7906 7.6426 -0.0411 60 60 60
1.3690 -0.3413 1.5144 60 60 60
1.4171 -0.1279 1.4962 60 60 60
-6.4918 -11.7738 3.4515 60 60 60
4.6137 -12.0839 1.6372 60 60 60
-2.0727 -11.3470 4.1640 60 60 60
-2.1216 10.5492 2.7851 60 60 60
26.5751 -19.3107 6.6314 60 60 60
0.8747 0.0014 1.8376 60 60 60
5.0749 -4.3298 1.7751 60 60 60
0.8688 0.0014 1.8374 60 60 60
4.3157 8.4452 2.3353 60 60 60
-4.2394 -2.0279 -0.0695 60 60 60
3.0356 8.8606 1.9685 60 60 60
15.1096 9.1518 3.9738 60 60 60
5.7079 6.7503 0.0544 60 60 60
-0.4925 -3.4459 -0.0735 60 60 60
-15.5769 14.6248 1.6160 60 60 60
0.9075 0.0011 1.8384 60 60 60
2.1170 -7.0800 -0.1229 60 60 60
-10.8714 13.2747 2.8391 60 60 60
0.9338 0.0007 1.8391 60 60 60
0.8534 3.6580 0.0085 60 60 60
4.7711 1.3074 0.0251 60 60 60
0.9585 0.0003 1.8396 60 60 60
0.9389 0.0006 1.8392 60 60 60
0.9604 0.0003 1.8396 60 60 60
0.8688 0.0014 1.8374 60 60 60
4.4602 8.3972 1.2634 60 60 60
0.9208 0.0009 1.8388 60 60 60
1.3552 0.2136 1.4929 60 60 60
-0.6790 -8.9418 0.3960 60 60 60
-3.4878 -11.5124 0.5722 60 60 60
-22.1348 16.8965 1.6199 60 60 60
-7.6773 12.4683 0.8618 60 60 60
5.8872 -3.1836 -0.1212 60 60 60
2.2268 8.9278 0.0883 60 60 60
-0.0709 3.4307 0.0047 60 60 60
-0.0880 -8.8285 0.4009 60 60 60
3.4928 -7.2221 -0.1269 60 60 60
0.5448 0.4346 1.5073 60 60 60
1.3618 0.2303 1.5025 60 60 60
1.4127 0.1224 1.4944 60 60 60
-3.4313 -11.4402 1.4376 60 60 60
0.8913 0.0012 1.8380 60 60 60
0.5714 0.4526 1.5082 60 60 60
5.8592 7.7728 2.9216 60 60 60
4.0218 -7.9476 -0.1496 60 60 60
7.2125 -10.4200 3.2302 60 60 60
6.3587 5.0113 0.0021 60 60 60
0.5253 3.4802 0.0115 60 60 60
0.9444 0.0005 1.8393 60 60 60
0.9547 0.0004 1.8395 60 60 60
0.4690 -0.0640 1.6102 60 60 60
-10.4080 3.4049 -0.1296 60 60 60
-0.2553 -8.9592 0.1659 60 60 60
0.4408 0.3119 1.5302 60 60 60
1.4409 -0.2587 1.4792 60 60 60
3.7275 8.6601 3.4414 60 60 60
-2.5983 2.8731 0.0044 60 60 60
-1.9094 -3.5184 1.0031 60 60 60
0.9400 0.0006 1.8392 60 60 60
27.5321 -16.4325 5.6915 60 60 60
3.8356 3.4796 0.0226 60 60 60
10.4101 8.4265 2.9040 60 60 60
0.8753 0.0013 1.8376 60 60 60
3.9638 8.5751 3.2104 60 60 60
-2.4509 -7.3073 -0.1260 60 60 60
-10.0661 -12.0470 5.4075 60 60 60
0.4549 4.1752 0.0080 60 60 60
0.4801 0.0012 1.6167 60 60 60
-7.4433 -11.8670 3.5521 60 60 60
0.0252 -4.0918 -0.1096 60 60 60
-4.0074 -15.3334 1.6507 60 60 60
1.5185 0.3595 1.4494 60 60 60
0.9167 0.0009 1.8387 60 60 60
1.4074 -0.1928 1.4928 60 60 60
8.9016 8.5329 0.1118 60 60 60
-7.6551 12.4599 2.9834 60 60 60
-0.5669 -2.9632 -0.0500 60 60 60
0.9026 0.0011 1.8383 60 60 60
-0.9553 10.1050 0.2704 60 60 60
-0.2740 2.9799 0.0101 60 60 60
-0.5192 8.7298 0.0547 60 60 60
1.4592 6.3966 -0.0225 60 60 60
11.0127 -28.8886 5.5962 60 60 60
-8.1352 -0.0982 1.2005 60 60 60
4.8111 4.8534 0.0144 60 60 60
9.9372 8.7815 1.4407 60 60 60
0.9569 0.0003 1.8396 60 60 60
5.8554 -20.2416 1.5592 60 60 60
0.9631 0.0003 1.8397 60 60 60
-2.6551 -3.4927 -0.0734 60 60 60
4.7021 8.3171 1.0368 60 60 60
0.2657 3.6784 0.0111 60 60 60
-4.8278 2.5424 0.0046 60 60 60
-6.3887 12.0381 0.9001 60 60 60
-3.2031 -4.8025 1.7207 60 60 60
1.3428 -0.3908 1.4932 60 60 60
6.0944 2.8664 0.0246 60 60 60
-6.1153 -0.4191 -0.0178 60 60 60
1.5203 0.0386 1.5335 60 60 60
1.1842 0.4408 1.4933 60 60 60
-0.5300 3.7760 0.0115 60 60 60
-0.0489 9.6699 1.6906 60 60 60
0.9579 0.0003 1.8396 60 60 60
0.9186 0.0009 1.8387 60 60 60
0.9544 0.0004 1.8395 60 60 60
-2.3020 -2.9006 -0.0491 60 60 60
1.3068 -0.3687 1.4822 60 60 60
-0.4720 3.1094 0.0095 60 60 60
5.0875 -1.8208 -0.0557 60 60 60
-1.1377 4.5729 -0.0021 60 60 60
-3.7974 -4.5465 1.1249 60 60 60
0.1934 -0.2118 1.5109 60 60 60
1.3424 9.3921 1.3959 60 60 60
-2.2902 -3.3988 0.0427 60 60 60
3.7197 -4.2882 0.2123 60 60 60
5.1048 2.9205 0.0219 60 60 60
3.1142 -4.4624 1.7254 60 60 60
-1.5413 5.3224 -0.0053 60 60 60
-9.5340 7.1971 1.1597 60 60 60
0.4900 3.1167 0.0094 60 60 60
0.9316 0.0007 1.8390 60 60 60
-0.0905 -4.3994 -0.1321 60 60 60
5.8723 7.8699 3.1541 60 60 60
1.3794 -0.2026 1.4900 60 60 60
-5.3717 1.0403 -0.0033 60 60 60
0.9398 0.0006 1.8392 60 60 60
1.7392 -0.4741 1.3556 60 60 60
-5.5780 5.5400 -0.0691 60 60 60
7.0208 -4.3602 1.3705 60 60 60
-1.3610 3.7583 0.0092 60 60 60
0.5284 -0.4872 1.5060 60 60 60
4.6333 1.6981 0.0271 60 60 60
-2.2684 -9.2298 0.3580 60 60 60
-4.7331 7.2500 -0.0489 60 60 60
-1.3941 4.9201 -0.0103 60 60 60
-4.9596 -11.6042 0.8653 60 60 60
1.1665 -4.0469 -0.1109 60 60 60
6.7612 -10.4608 3.5072 60 60 60
0.9238 0.0008 1.8389 60 60 60
0.2649 0.4088 1.4970 60 60 60
1.4763 0.2560 1.4724 60 60 60
0.9490 0.0005 1.8394 60 60 60
-2.7743 6.1381 -0.0186 60 60 60
5.1398 3.6581 0.0175 60 60 60
0.2343 9.6656 1.6782 60 60 60
1.4586 -4.2661 -0.1227 60 60 60
-5.0533 11.2373 0.6646 60 60 60
-0.2111 -5.1003 -0.1596 60 60 60
1.4937 0.0520 1.5277 60 60 60
0.9482 0.0005 1.8394 60 60 60
0.9593 0.0004 1.8396 60 60 60
0.0361 0.1879 1.4974 60 60 60
3.6865 8.6415 1.9375 60 60 60
-3.8654 -11.5154 0.8652 60 60 60
1.3934 -0.3498 1.5186 60 60 60
3.5968 -7.1182 -0.1171 60 60 60
-3.0446 -14.7122 2.3366 60 60 60
4.3663 -4.2694 0.3530 60 60 60
-0.1403 7.4256 -0.0492 60 60 60
1.7603 -3.6318 -0.0983 60 60 60
4.3210 8.4343 0.6289 60 60 60
0.8734 0.0014 1.8375 60 60 60
-4.8255 -11.5867 2.0725 60 60 60
0.9433 0.0006 1.8393 60 60 60
0.9064 0.0011 1.8384 60 60 60
0.9181 0.0008 1.8387 60 60 60
25.8147 -21.8974 3.7282 60 60 60
-16.0646 8.7037 -0.0265 60 60 60
0.7114 3.9093 0.0125 60 60 60
2.9460 3.5231 0.0206 60 60 60
-18.2665 15.6814 5.6927 60 60 60
7.0073 -4.3052 -0.0596 60 60 60
-0.8326 -2.8554 -0.0548 60 60 60
-5.4616 -11.7237 0.5440 60 60 60
0.9311 0.0007 1.8390 60 60 60
-80.4685 14.3773 1.7790 60 60 60
3.9690 4.9668 0.0118 60 60 60
0.9599 0.0003 1.8396 60 60 60
0.9164 0.0009 1.8387 60 60 60
2.7995 8.6099 0.0993 60 60 60
-0.4620 -3.2050 -0.0537 60 60 60
3.7223 7.3565 0.0364 60 60 60
-5.0543 2.0102 0.0082 60 60 60
1.6041 4.5432 0.0085 60 60 60
0.4990 9.5594 0.3181 60 60 60
1.2944 0.5103 1.4770 60 60 60
0.8988 0.0012 1.8382 60 60 60
-2.6650 -3.1854 0.8642 60 60 60
-0.0901 3.4215 0.0075 60 60 60
0.5994 9.4233 1.0056 60 60 60
0.4252 -0.1873 1.5439 60 60 60
-4.6949 -11.5768 0.8664 60 60 60
6.4925 -3.1646 -0.1335 60 60 60
0.8975 0.0012 1.8382 60 60 60
0.9479 0.0005 1.8394 60 60 60
-16.4863 8.0460 -0.0216 60 60 60
2.8129 -3.3073 -0.0910 60 60 60
-0.3383 4.4002 0.0056 60 60 60
5.5234 0.2646 0.0245 60 60 60
4.4549 8.3970 2.1168 60 60 60
2.5630 3.2339 0.0169 60 60 60
0.9244 9.4332 0.7520 60 60 60
0.9216 0.0008 1.8388 60 60 60
4.5570 8.3434 0.3985 60 60 60
0.8490 0.0016 1.8369 60 60 60
4.8670 -5.0102 -0.0462 60 60 60
-0.3194 3.5864 0.0106 60 60 60
-24.1475 17.6126 4.4851 60 60 60
3.6415 3.6684 0.0236 60 60 60
0.8748 0.0013 1.8376 60 60 60
1.4740 4.5822 0.0079 60 60 60
0.3150 0.3348 1.5120 60 60 60
0.9446 0.0006 1.8393 60 60 60
-4.4237 -1.4559 -0.0571 60 60 60
6.2757 -7.7391 0.2401 60 60 60
0.9604 0.0003 1.8396 60 60 60
6.7415 -4.7053 0.1308 60 60 60
1.1298 0.5054 1.4990 60 60 60
-3.9574 9.8851 0.0217 60 60 60
14.8272 -14.1573 -0.2320 60 60 60
1.2630 4.6436 0.0045 60 60 60
9.1137 8.3156 3.6752 60 60 60
9.0377 -10.2292 3.5788 60 60 60
6.4849 -10.5142 1.2782 60 60 60
6.5491 7.9149 0.6811 60 60 60
0.5921 3.6854 0.0132 60 60 60
2.6570 9.0104 3.2836 60 60 60
0.9401 0.0005 1.8392 60 60 60
0.4503 -4.7664 -0.1540 60 60 60
2.1579 3.4940 0.0058 60 60 60
-8.2911 12.5504 2.6672 60 60 60
-4.8140 -1.6687 -0.0523 60 60 60
-17.6564 0.1369 2.2650 60 60 60
4.3296 8.4612 3.4168 60 60 60
5.9228 -0.8513 -0.0174 60 60 60
0.9438 0.0006 1.8393 60 60 60
0.9688 0.0002 1.8398 60 60 60
2.0654 9.0717 2.2283 60 60 60
0.2409 -0.0345 1.5234 60 60 60
0.9401 0.0005 1.8392 60 60 60
-6.0931 0.6694 -0.0154 60 60 60
0.9102 0.0010 1.8385 60 60 60
2.3270 -8.4780 0.5403 60 60 60
0.2960 4.4496 0.0099 60 60 60
-2.8105 10.7751 2.8475 60 60 60
0.9458 0.0005 1.8393 60 60 60
4.6704 8.3361 2.3216 60 60 60
4.6500 8.3303 1.0400 60 60 60
1.2181 0.4284 1.5030 60 60 60
1.3999 0.4425 1.5384 60 60 60
1.2241 9.4411 1.1791 60 60 60
1.8608 -0.2603 1.3322 60 60 60
-14.2520 14.5617 1.1129 60 60 60
0.9498 0.0004 1.8394 60 60 60
0.4273 -0.3177 1.5125 60 60 60
0.9425 0.0005 1.8393 60 60 60
1.4039 -0.0045 1.4929 60 60 60
0.9525 0.0004 1.8395 60 60 60
0.9436 0.0005 1.8393 60 60 60
13.7619 -10.3534 -0.3281 60 60 60
-1.7183 3.5578 0.0119 60 60 60
-19.0030 15.9531 7.0404 60 60 60
-22.3820 9.0421 0.0284 60 60 60
-1.9372 -11.3548 1.9403 60 60 60
0.8593 0.0015 1.8372 60 60 60
0.9295 0.0008 1.8390 60 60 60
11.6972 8.5682 3.6197 60 60 60
0.7736 4.4109 0.0080 60 60 60
0.9571 0.0004 1.8396 60 60 60
-22.1704 -11.1605 2.2764 60 60 60
0.9517 0.0005 1.8395 60 60 60
-1.1126 -4.4834 -0.1251 60 60 60
2.9360 8.8639 0.2614 60 60 60
1.6880 9.3145 2.6921 60 60 60
6.4393 7.9274 3.1874 60 60 60
1.3280 0.2683 1.4931 60 60 60
1.3695 0.2301 1.4982 60 60 60
6.6192 -10.4840 0.9907 60 60 60
6.4419 3.3993 0.0253 60 60 60
1.2514 9.4329 0.7357 60 60 60
-0.5648 10.0411 2.6531 60 60 60
-5.5749 -11.7069 2.1067 60 60 60
-2.4686 7.1395 -0.0456 60 60 60
5.9419 -1.2272 -0.0484 60 60 60
5.2120 7.3899 3.0599 60 60 60
0.8500 4.4045 0.0068 60 60 60
4.9116 -23.0794 2.6883 60 60 60
5.2973 -3.3478 -0.1230 60 60 60
1.6131 -0.1529 1.4424 60 60 60
4.9326 -1.0831 -0.0200 60 60 60
-6.7772 -0.9932 -0.0166 60 60 60
1.3087 0.4091 1.5087 60 60 60
0.9460 0.0005 1.8393 60 60 60
3.4040 -10.9298 0.3831 60 60 60
-1.6221 10.3913 2.7417 60 60 60
9.3028 -4.7578 -0.1622 60 60 60
0.8190 3.1077 0.0147 60 60 60
0.9447 0.0005 1.8393 60 60 60
-3.3879 3.7001 -0.0042 60 60 60
0.9509 0.0004 1.8394 60 60 60
-5.2955 -1.8087 -0.0459 60 60 60
-3.0168 4.0219 -0.0031 60 60 60
1.7142 9.2739 1.3829 60 60 60
9.1267 -10.2243 3.5831 60 60 60
5.6263 -10.6311 1.0506 60 60 60
1.1781 -11.2122 3.1099 60 60 60
1.4386 -4.4522 0.0441 60 60 60
0.9021 0.0011 1.8383 60 60 60
-4.3228 11.3439 1.5341 60 60 60
-12.1893 3.7024 -0.1003 60 60 60
1.3554 -0.4249 1.5135 60 60 60
5.7478 -2.1064 -0.0694 60 60 60
3.5134 8.7118 2.3714 60 60 60
0.9501 0.0004 1.8394 60 60 60
0.9628 0.0003 1.8397 60 60 60
6.1659 7.8928 2.4979 60 60 60
4.8432 2.6439 0.0239 60 60 60
0.9007 0.4324 1.5770 60 60 60
2.4788 9.0652 2.8597 60 60 60
-2.0160 3.3550 0.0135 60 60 60
0.2742 3.9078 0.0119 60 60 60
1.2445 0.3752 1.4968 60 60 60
5.1999 1.8533 0.0259 60 60 60
5.3975 8.1036 3.3925 60 60 60
0.0426 3.2413 0.0109 60 60 60
-16.5485 -3.4609 0.1400 60 60 60
0.9351 0.0007 1.8391 60 60 60
0.9482 0.0005 1.8394 60 60 60
5.6885 -7.8362 0.0810 60 60 60
0.9533 0.0005 1.8395 60 60 60
3.2066 3.6534 0.0240 60 60 60
1.6746 -4.4300 0.1471 60 60 60
6.2482 -10.5004 3.7795 60 60 60
-6.5641 -1.0963 0.5810 60 60 60
1.9961 4.0839 0.0125 60 60 60
0.8446 5.5075 -0.0120 60 60 60
5.1114 -4.3709 1.6335 60 60 60
4.8221 -4.2849 0.5435 60 60 60
9.4088 5.6364 0.0097 60 60 60
5.7781 7.8543 0.7614 60 60 60
1.4652 0.0641 1.5238 60 60 60
-0.0368 -4.1821 0.0830 60 60 60
-10.4275 3.3400 -0.1289 60 60 60
-1.2365 -11.2589 3.7958 60 60 60
-3.1335 -3.5758 -0.0750 60 60 60
0.9081 0.0010 1.8384 60 60 60
0.3055 0.1629 1.5213 60 60 60
-4.5954 -11.6616 0.2505 60 60 60
0.3811 -0.2508 1.5269 60 60 60
-2.4885 4.3985 -0.0049 60 60 60
-0.0812 -3.1141 -0.0535 60 60 60
0.9422 0.0005 1.8393 60 60 60
2.1852 9.1320 1.3650 60 60 60
0.9574 0.0003 1.8396 60 60 60
3.9383 -4.3622 1.1896 60 60 60
0.2120 0.0355 1.5301 60 60 60
3.3904 -3.4941 -0.1023 60 60 60
0.9097 0.0010 1.8385 60 60 60
3.5597 6.9690 -0.0511 60 60 60
7.8868 -10.3788 1.1999 60 60 60
0.1919 -0.1897 1.5128 60 60 60
0.9474 0.0005 1.8394 60 60 60
-3.6743 -4.5813 1.1280 60 60 60
-10.7814 12.2538 0.0394 60 60 60
10.6728 8.4185 0.1946 60 60 60
-0.0416 9.6786 0.0832 60 60 60
-11.0913 -6.5924 -0.1954 60 60 60
8.3371 9.2858 0.9576 60 60 60
-7.3562 -11.8554 2.8644 60 60 60
0.6639 -4.4073 -0.0079 60 60 60
0.9427 0.0006 1.8393 60 60 60
6.1313 7.8577 1.1705 60 60 60
-0.1195 -3.3090 -0.0620 60 60 60
0.0740 0.0684 1.5866 60 60 60
6.6848 -17.0250 1.9471 60 60 60
-0.4708 8.7394 0.0521 60 60 60
1.4711 -3.4874 -0.0874 60 60 60
-4.6779 1.5643 0.0057 60 60 60
-12.5939 7.1130 -0.0171 60 60 60
0.9181 0.0009 1.8387 60 60 60
4.5423 -4.3101 1.2637 60 60 60
-6.9220 -11.8231 3.1637 60 60 60
1.4473 0.0080 1.5187 60 60 60
0.9504 0.0004 1.8394 60 60 60
-0.6299 -2.9206 -0.0409 60 60 60
2.5059 6.7218 -0.0423 60 60 60
-8.6824 3.9406 -0.1518 60 60 60
4.8587 1.0295 0.0183 60 60 60
-6.7272 -4.5995 -0.1418 60 60 60
-8.4561 7.3030 0.0618 60 60 60
-19.0177 -0.3220 1.8276 60 60 60
6.1479 5.4175 -0.0149 60 60 60
-1.6254 7.3564 -0.0538 60 60 60
-1.1208 -6.8570 -0.1334 60 60 60
-0.6350 3.0391 0.0138 60 60 60
2.8794 8.9223 0.9086 60 60 60
1.5068 0.1911 1.4684 60 60 60
-3.3650 5.1026 -0.0170 60 60 60
7.7633 -4.3240 0.1661 60 60 60
3.6697 4.0793 0.0272 60 60 60
1.8434 9.2784 3.5707 60 60 60
3.2526 7.1459 -0.0505 60 60 60
6.7601 -4.2858 -0.0024 60 60 60
-10.1640 13.0947 0.7908 60 60 60
1.8580 9.2363 2.0269 60 60 60
0.9420 0.0005 1.8393 60 60 60
9.4370 -5.4380 0.4815 60 60 60
0.8761 0.0014 1.8376 60 60 60
-4.0957 -11.4817 2.9175 60 60 60
0.9192 0.0009 1.8387 60 60 60
1.9671 5.1401 0.0134 60 60 60
0.3709 0.3184 1.5182 60 60 60
0.9392 0.0006 1.8392 60 60 60
0.1547 3.4642 0.0058 60 60 60
-5.1561 -11.6400 0.5555 60 60 60
0.9005 0.0011 1.8382 60 60 60
-1.0134 -3.8035 0.2604 60 60 60
3.4349 -4.9243 -0.1793 60 60 60
0.8456 8.1285 -0.0718 60 60 60
0.9490 0.0005 1.8394 60 60 60
0.9452 0.0005 1.8393 60 60 60
0.9086 0.0010 1.8384 60 60 60
1.5710 0.2468 1.4470 60 60 60
6.1215 -10.6079 0.4648 60 60 60
-1.1095 -11.2724 1.6363 60 60 60
5.1880 -1.4570 -0.0472 60 60 60
3.4135 8.7317 1.5274 60 60 60
4.2610 8.4659 3.1969 60 60 60
10.9315 8.0482 0.1852 60 60 60
-6.4774 -0.3552 0.2534 60 60 60
-6.3522 -11.8326 0.1930 60 60 60
0.7392 -4.5224 0.0646 60 60 60
-5.2062 -11.6266 1.4767 60 60 60
-1.7394 -3.0391 -0.0523 60 60 60
11.4093 8.4963 0.7391 60 60 60
-18.0885 1.4586 1.8309 60 60 60
3.4301 -10.9621 3.0095 60 60 60
-1.4089 3.7380 0.0081 60 60 60
0.0576 -0.0836 1.5129 60 60 60
5.6394 3.7043 0.0274 60 60 60
-2.2328 -3.3713 0.9973 60 60 60
-79.9808 12.8924 3.7031 60 60 60
-7.6959 -5.4583 -0.1814 60 60 60
1.2803 -11.0820 0.4962 60 60 60
-0.6189 -3.9676 -0.1052 60 60 60
-8.8005 -12.0757 0.0797 60 60 60
0.4521 -3.1957 -0.0621 60 60 60
5.7090 -3.6130 -0.1411 60 60 60
1.1254 -3.8000 -0.0999 60 60 60
5.8504 -20.2961 1.0736 60 60 60
0.8750 0.0014 1.8376 60 60 60
1.3310 0.5008 1.4870 60 60 60
9.4968 5.3398 0.0170 60 60 60
6.9448 7.9482 0.8736 60 60 60
-2.8513 -3.2165 1.8891 60 60 60
-2.1918 -5.7386 -0.0613 60 60 60
2.2270 9.1146 0.2768 60 60 60
0.4846 0.0463 1.6168 60 60 60
4.6943 5.0018 0.0089 60 60 60
-12.2636 -12.2546 4.9597 60 60 60
5.4694 -10.6190 3.2235 60 60 60
-6.8466 0.7440 -0.0207 60 60 60
-2.9321 4.6911 -0.0095 60 60 60
1.9535 -3.0812 -0.0672 60 60 60
-0.4951 -2.9887 -0.0493 60 60 60
0.2021 -0.0401 1.5666 60 60 60
-1.8599 10.4471 2.2539 60 60 60
5.5504 -0.0377 0.0162 60 60 60
-7.7071 -5.3966 -0.1752 60 60 60
-0.1134 -0.1978 1.4732 60 60 60
-10.6269 4.9884 0.0263 60 60 60
6.5855 -10.4769 2.6616 60 60 60
5.2594 -0.0078 0.0114 60 60 60
-19.5020 -6.0458 -0.2198 60 60 60
-5.4493 -4.4448 2.8506 60 60 60
-0.8430 6.6703 -0.0328 60 60 60
3.2355 -7.4452 -0.1456 60 60 60
3.6044 -3.2816 -0.0978 60 60 60
1.9375 9.1312 2.6656 60 60 60
-5.4018 -1.1140 -0.0209 60 60 60
0.9121 0.0009 1.8385 60 60 60
-0.7576 10.1141 2.6695 60 60 60
0.6682 6.6343 -0.0294 60 60 60
-2.4450 -8.1599 -0.1148 60 60 60
2.0375 -4.4849 0.9002 60 60 60
-0.5732 -4.5591 -0.1016 60 60 60
-6.6269 -1.1501 0.1990 60 60 60
5.5325 -1.4222 -0.0500 60 60 60
2.4855 3.0554 0.0111 60 60 60
-4.0191 6.4831 -0.0388 60 60 60
0.8729 0.0013 1.8375 60 60 60
-8.3830 12.4991 0.4890 60 60 60
0.9522 0.0005 1.8395 60 60 60
5.4462 -1.7564 -0.0551 60 60 60
4.0181 -4.3234 0.9306 60 60 60
1.3952 -0.2267 1.4934 60 60 60
-3.3274 -14.7449 2.3520 60 60 60
12.8207 8.5565 2.3353 60 60 60
0.1040 0.1139 1.5044 60 60 60
1.2810 -0.4149 1.4949 60 60 60
5.5928 -2.5874 -0.0848 60 60 60
-2.4565 10.7327 1.5047 60 60 60
-12.4296 -12.2656 4.9857 60 60 60
0.8924 0.0011 1.8380 60 60 60
-23.5407 -19.2733 7.3203 60 60 60
1.5094 -0.2224 1.4682 60 60 60
5.3597 8.1170 1.6487 60 60 60
0.4079 5.5927 -0.0137 60 60 60
0.3932 0.3729 1.5118 60 60 60
-4.1024 -3.1321 -0.0718 60 60 60
0.8991 0.0012 1.8382 60 60 60
-3.5032 -4.6401 1.7312 60 60 60
4.8034 8.2801 1.0314 60 60 60
5.3781 -4.4681 -0.0538 60 60 60
6.7305 -10.4521 2.6595 60 60 60
3.4282 -8.1765 0.4949 60 60 60
1.8409 -3.5951 -0.0948 60 60 60
-0.2795 -7.6304 -0.1483 60 60 60
1.0154 -3.3696 -0.0765 60 60 60
1.7139 -10.9561 0.2264 60 60 60
4.8513 8.2740 1.8857 60 60 60
1.0979 -5.0444 -0.1602 60 60 60
0.9346 0.0007 1.8391 60 60 60
0.8980 0.0011 1.8382 60 60 60
1.3154 0.3138 1.5026 60 60 60
5.9243 -19.8386 2.9883 60 60 60
-12.6609 -12.3084 4.1502 60 60 60
-1.4330 -6.2675 -0.1526 60 60 60
0.1175 -0.0349 1.6001 60 60 60
2.0533 9.2117 3.5528 60 60 60
-0.8697 3.4107 0.0091 60 60 60
-25.9257 -23.2995 9.7644 60 60 60
-10.4715 2.5839 -0.0976 60 60 60
-7.0129 -11.7493 4.8603 60 60 60
1.8284 -8.5709 -0.0631 60 60 60
0.8442 -4.4918 0.0722 60 60 60
5.1146 -3.7043 -0.1405 60 60 60
8.8820 -10.2603 0.5331 60 60 60
0.9514 0.0004 1.8395 60 60 60
24.6326 -25.3583 5.5505 60 60 60
-0.1226 -6.3132 -0.1261 60 60 60
0.1774 0.0903 1.5132 60 60 60
1.3486 0.4998 1.5008 60 60 60
-1.0213 5.4775 -0.0120 60 60 60
-1.7413 6.4474 -0.0126 60 60 60
13.0835 8.6048 3.0393 60 60 60
9.5706 -6.2598 0.4200 60 60 60
1.5793 4.5571 0.0060 60 60 60
-6.6503 1.6619 -0.0130 60 60 60
0.9181 0.0008 1.8387 60 60 60
1.6067 -0.2151 1.4393 60 60 60
1.5265 -0.1385 1.4693 60 60 60
1.3603 -5.3268 -0.1488 60 60 60
5.4845 7.9506 1.2126 60 60 60
-2.0393 -11.3440 3.0410 60 60 60
0.9523 0.0004 1.8395 60 60 60
2.2125 9.1198 0.9331 60 60 60
7.9141 -10.3551 2.6553 60 60 60
-3.3291 2.4567 0.0106 60 60 60
-0.5570 -11.4053 2.6820 60 60 60
-10.7821 13.2588 4.0816 60 60 60
0.9438 0.0005 1.8393 60 60 60
0.3599 -0.3561 1.5104 60 60 60
0.3153 -0.2119 1.5226 60 60 60
-1.2026 3.8378 0.0063 60 60 60
-9.6846 -12.0916 2.6692 60 60 60
-0.6047 4.0459 0.0048 60 60 60
0.9000 0.0011 1.8382 60 60 60
2.7410 4.3436 0.0243 60 60 60
0.0827 9.7351 3.0562 60 60 60
-5.4646 -0.6404 -0.0159 60 60 60
3.0591 3.4337 0.0215 60 60 60
1.4830 -0.0887 1.4781 60 60 60
-10.5777 4.4152 1.8083 60 60 60
-7.7211 1.2839 -0.0300 60 60 60
0.9297 0.0008 1.8390 60 60 60
1.8736 9.2134 0.5057 60 60 60
1.6759 -4.2129 -0.1261 60 60 60
1.2111 -0.4789 1.4962 60 60 60
0.9918 -0.4355 1.5680 60 60 60
2.2234 -11.1060 3.5867 60 60 60
0.2743 9.6604 2.3540 60 60 60
-0.1326 3.4184 0.0047 60 60 60
-1.1490 10.2414 2.7018 60 60 60
0.1998 -0.2283 1.5114 60 60 60
1.4320 5.8478 -0.0138 60 60 60
-4.5519 5.2336 -0.0530 60 60 60
-3.8061 -15.3655 2.0157 60 60 60
-2.6199 10.4690 0.7457 60 60 60
-2.1333 8.2183 -0.0674 60 60 60
14.6695 8.8299 2.3687 60 60 60
0.9129 0.0010 1.8386 60 60 60
9.1259 8.1765 0.1121 60 60 60
3.4197 4.2806 0.0288 60 60 60
10.5212 -28.8119 2.7400 60 60 60
0.9623 0.0003 1.8397 60 60 60
0.1731 -0.0062 1.5766 60 60 60
4.4012 8.4095 0.1880 60 60 60
0.9007 0.0011 1.8382 60 60 60
-3.9612 -15.3830 0.5168 60 60 60
-15.7403 1.6420 -0.1271 60 60 60
1.7177 0.4355 1.3662 60 60 60
6.5289 -4.8145 -0.0234 60 60 60
6.1897 7.8708 0.9435 60 60 60
-0.4481 10.0881 1.6994 60 60 60
2.3534 3.9118 0.0144 60 60 60
1.0986 0.5462 1.4877 60 60 60
5.1301 -10.6464 3.4955 60 60 60
1.5125 9.3891 3.3747 60 60 60
1.9891 -3.2987 -0.0856 60 60 60
-13.1827 8.4433 1.3659 60 60 60
1.2804 0.4604 1.4825 60 60 60
-20.4766 16.4080 4.7732 60 60 60
0.9411 0.0005 1.8392 60 60 60
0.9593 0.0004 1.8396 60 60 60
1.5812 0.2175 1.4465 60 60 60
-1.2934 10.2768 2.4673 60 60 60
2.5961 -11.0911 3.0445 60 60 60
2.8866 8.9165 1.9759 60 60 60
2.8664 -11.0275 3.5593 60 60 60
-6.1063 -0.5003 -0.0173 60 60 60
11.3454 7.2391 0.1785 60 60 60
5.6296 -3.7748 -0.1477 60 60 60
-4.4229 -11.5253 3.5448 60 60 60
0.2756 -6.8681 -0.1293 60 60 60
-31.4800 20.0192 4.2820 60 60 60
4.2653 3.0002 0.0144 60 60 60
-1.8847 10.2198 0.7641 60 60 60
0.4413 5.5840 -0.0115 60 60 60
12.0300 8.6062 3.9875 60 60 60
1.3768 0.3906 1.5231 60 60 60
8.2198 5.4390 -0.0020 60 60 60
3.4389 8.5648 2.7833 60 60 60
-9.2064 12.8149 0.4403 60 60 60
-16.4319 9.4652 1.7459 60 60 60
0.8071 3.4507 0.0125 60 60 60
0.9392 0.0006 1.8392 60 60 60
5.5513 -10.6717 0.5082 60 60 60
2.3647 3.1337 0.0104 60 60 60
2.9583 5.1250 0.0128 60 60 60
1.3485 0.5370 1.4887 60 60 60
0.8964 0.0011 1.8381 60 60 60
-5.2498 -2.9344 0.9960 60 60 60
0.9647 0.0002 1.8397 60 60 60
-2.5549 -2.6277 -0.0452 60 60 60
-8.1256 12.4555 0.4989 60 60 60
0.0224 3.2396 0.0099 60 60 60
0.8991 0.0012 1.8382 60 60 60
13.1208 8.5551 0.2448 60 60 60
-0.0595 -3.3148 -0.0589 60 60 60
0.0090 9.8375 0.9918 60 60 60
-5.1079 11.4168 4.2911 60 60 60
3.6286 -8.1779 -0.1487 60 60 60
-5.0522 11.4050 3.6666 60 60 60
5.5615 -0.2857 0.0088 60 60 60
-1.9449 4.2211 0.0025 60 60 60
-1.9818 4.6767 -0.0067 60 60 60
9.3698 -4.6686 -0.1676 60 60 60
7.7151 -4.1201 -0.1983 60 60 60
0.9623 0.0003 1.8397 60 60 60
3.2221 8.7677 0.8987 60 60 60
0.9349 0.0007 1.8391 60 60 60
-3.6275 11.1770 4.0808 60 60 60
7.0181 3.6932 0.0233 60 60 60
3.4287 8.7384 1.7382 60 60 60
-0.0804 6.7004 -0.0329 60 60 60
2.9523 4.2083 0.0253 60 60 60
-8.4476 -3.0818 -0.0595 60 60 60
0.4520 0.4631 1.5030 60 60 60
-6.1645 0.1875 -0.0261 60 60 60
2.1968 -7.0570 -0.1245 60 60 60
1.8540 -11.0189 0.4730 60 60 60
3.5409 3.7585 0.0243 60 60 60
0.3112 -0.2453 1.5151 60 60 60
4.6297 1.7239 0.0244 60 60 60
0.8694 0.0014 1.8374 60 60 60
0.3992 -0.2645 1.5141 60 60 60
5.9329 -0.8228 -0.0196 60 60 60
5.5639 -0.4531 0.0032 60 60 60
-2.3368 -2.8649 -0.0483 60 60 60
-2.0169 3.7354 0.0132 60 60 60
-6.7388 -1.2575 -0.0191 60 60 60
-0.2456 -4.1359 0.3209 60 60 60
0.4571 0.4860 1.4963 60 60 60
6.0913 -2.4758 -0.0832 60 60 60
0.9075 0.0010 1.8384 60 60 60
2.9062 -3.9177 -0.1226 60 60 60
-9.0151 -2.2707 0.6222 60 60 60
1.3380 -0.4442 1.4765 60 60 60
-3.0022 10.5806 0.7364 60 60 60
-4.9212 -4.1034 1.5979 60 60 60
6.7643 -4.5574 -0.0386 60 60 60
1.3884 0.1470 1.4874 60 60 60
0.9547 0.0004 1.8395 60 60 60
-5.0771 4.8164 -0.0633 60 60 60
5.9470 -1.1972 -0.0479 60 60 60
-18.4096 -3.7110 1.8018 60 60 60
-0.5066 6.0979 -0.0257 60 60 60
3.2088 -10.9515 0.3946 60 60 60
0.2678 -8.8580 -0.0444 60 60 60
1.4602 0.0642 1.4904 60 60 60
2.0226 -3.0492 -0.0674 60 60 60
4.8429 8.2810 1.6726 60 60 60
8.8331 8.2742 2.8310 60 60 60
9.8770 9.1205 1.7422 60 60 60
1.4623 -0.0163 1.5282 60 60 60
-14.3647 14.7048 4.5821 60 60 60
6.1146 -10.5713 3.2255 60 60 60
-12.4809 13.9423 6.1808 60 60 60
-2.3363 3.5158 0.0117 60 60 60
0.2125 -0.2795 1.5089 60 60 60
-1.9276 3.7982 0.0109 60 60 60
0.4683 3.2904 0.0103 60 60 60
2.4400 3.8639 0.0150 60 60 60
5.3072 5.3208 -0.0111 60 60 60
3.7630 3.5611 0.0206 60 60 60
6.8162 -7.6149 0.6434 60 60 60
2.9653 -3.8645 -0.1175 60 60 60
4.4130 -4.3113 1.1445 60 60 60
-43.8779 13.0883 0.6821 60 60 60
-8.5812 8.4168 -0.0809 60 60 60
10.1620 -5.4400 1.8998 60 60 60
-4.8888 2.4119 0.0057 60 60 60
1.4263 -0.0571 1.4958 60 60 60
5.5399 0.1552 0.0197 60 60 60
0.9485 0.0005 1.8394 60 60 60
4.8915 -14.1515 1.6191 60 60 60
3.1714 3.6897 0.0213 60 60 60
0.1671 -4.4307 -0.1376 60 60 60
-2.3716 -11.3701 3.9107 60 60 60
-0.1724 9.9169 0.9912 60 60 60
0.1156 0.1563 1.5057 60 60 60
0.8947 0.4708 1.5699 60 60 60
1.7549 0.3835 1.3596 60 60 60
7.0934 -10.4253 1.8091 60 60 60
0.8913 0.0011 1.8380 60 60 60
-8.1712 -11.8761 4.3392 60 60 60
2.1930 3.4644 0.0110 60 60 60
0.9110 0.0010 1.8385 60 60 60
0.2430 -0.1893 1.5135 60 60 60
-14.0690 8.7394 1.3437 60 60 60
0.9392 0.0006 1.8392 60 60 60
-4.0619 -2.3640 -0.0678 60 60 60
-3.7117 -4.5691 1.1273 60 60 60
1.0969 -4.0703 -0.1163 60 60 60
2.0245 -3.2783 -0.0834 60 60 60
9.9228 8.4938 2.5977 60 60 60
-3.1317 -11.4457 3.7067 60 60 60
0.9398 4.1256 0.0037 60 60 60
0.5279 -0.4822 1.5080 60 60 60
0.4825 9.4206 2.7729 60 60 60
1.4235 -0.0863 1.4959 60 60 60
-0.4695 -4.0318 0.3446 60 60 60
4.8562 -1.5838 -0.0496 60 60 60
5.1575 8.1569 1.0115 60 60 60
0.8691 0.0014 1.8374 60 60 60
0.9616 0.4221 1.5866 60 60 60
3.6673 -4.2997 0.6055 60 60 60
-2.7231 -3.2149 1.7716 60 60 60
-3.6720 -3.0965 0.4645 60 60 60
3.2146 8.8003 1.5363 60 60 60
1.1596 0.4641 1.4913 60 60 60
7.1268 -10.4215 2.9432 60 60 60
0.1223 -0.3039 1.4934 60 60 60
9.9637 8.2847 0.2850 60 60 60
1.1004 0.5416 1.4895 60 60 60
3.3513 8.7635 2.1670 60 60 60
6.5119 -7.6723 0.6703 60 60 60
4.8367 -1.6578 -0.0525 60 60 60
0.2774 0.4913 1.4797 60 60 60
0.8980 0.0012 1.8382 60 60 60
-2.6704 2.7961 0.0042 60 60 60
4.7013 -2.0426 -0.0624 60 60 60
-0.6783 10.0853 2.9023 60 60 60
0.0546 -3.8309 -0.0989 60 60 60
0.5785 -0.4999 1.4962 60 60 60
-15.7301 1.5417 -0.1246 60 60 60
9.5810 9.4311 2.0575 60 60 60
0.8197 -4.5447 0.8634 60 60 60
-3.2039 -3.1772 0.5370 60 60 60
4.3824 7.7830 0.0756 60 60 60
2.6322 8.9971 1.9883 60 60 60
-0.0617 -3.5624 -0.0834 60 60 60
-1.8704 2.8005 0.0080 60 60 60
-6.0608 -0.9019 -0.0188 60 60 60
1.6306 9.1391 2.8946 60 60 60
-5.6206 -11.6202 4.6349 60 60 60
5.2227 4.3341 0.0219 60 60 60
0.9273 0.0007 1.8389 60 60 60
5.2270 -3.4990 -0.1315 60 60 60
-0.3742 -8.2775 -0.1089 60 60 60
0.5781 0.4557 1.5090 60 60 60
0.9341 0.0007 1.8391 60 60 60
10.1654 -5.1549 1.8939 60 60 60
4.0555 -17.2639 0.8298 60 60 60
3.2140 -4.3927 0.9011 60 60 60
-0.0430 9.8600 2.1473 60 60 60
4.6291 7.5534 3.0655 60 60 60
-22.3368 -7.4740 0.0447 60 60 60
-16.4772 15.0919 2.1527 60 60 60
0.9504 0.4242 1.5738 60 60 60
4.3551 -4.3389 1.2791 60 60 60
-3.2647 -3.1578 1.2877 60 60 60
7.3972 -7.5171 0.5892 60 60 60
-0.6367 -8.3676 -0.1280 60 60 60
14.4389 -11.4098 0.3585 60 60 60
0.9468 0.0005 1.8394 60 60 60
-0.1344 9.9008 2.6191 60 60 60
-0.3190 7.4359 -0.0506 60 60 60
9.8370 9.4677 2.3585 60 60 60
-1.5918 -3.7215 1.7352 60 60 60
0.9392 0.0006 1.8392 60 60 60
5.2056 -2.5092 -0.0803 60 60 60
0.8668 3.4493 0.0098 60 60 60
-0.3439 4.7407 0.0021 60 60 60
2.3766 -5.0768 -0.1793 60 60 60
2.6257 -0.2609 1.0046 60 60 60
0.9319 0.0007 1.8390 60 60 60
-1.3797 -3.7432 1.0034 60 60 60
-19.9363 10.5435 0.1091 60 60 60
-5.2367 -2.9797 1.7956 60 60 60
-6.7006 -1.5223 -0.0245 60 60 60
0.3475 4.4562 0.0076 60 60 60
-10.1012 13.2785 4.4222 60 60 60
-0.1201 8.3361 -0.0746 60 60 60
0.9466 0.0005 1.8393 60 60 60
0.2505 3.0973 0.0080 60 60 60
0.1452 0.0211 1.5876 60 60 60
0.9392 0.0006 1.8392 60 60 60
-2.6408 9.8093 0.0707 60 60 60
1.8097 -0.3928 1.3386 60 60 60
4.7322 -2.7490 -0.0921 60 60 60
0.4822 0.0064 1.6176 60 60 60
2.9137 8.8936 0.6940 60 60 60
-1.6678 3.9525 0.0080 60 60 60
-1.2748 -11.2945 0.8360 60 60 60
1.3834 0.5201 1.5232 60 60 60
-5.4111 0.8608 -0.0059 60 60 60
0.4689 9.4230 2.5529 60 60 60
-6.5120 0.2033 0.6093 60 60 60
-1.5233 8.3034 -0.0693 60 60 60
1.6889 -3.9159 -0.1107 60 60 60
-11.3952 -3.6518 1.7975 60 60 60
-1.4452 -3.7699 1.5227 60 60 60
1.4134 -0.0493 1.4863 60 60 60
3.6324 4.6207 0.0246 60 60 60
-6.9328 -0.0170 -0.0329 60 60 60
-0.2112 3.6098 0.0111 60 60 60
0.0179 -0.1248 1.4968 60 60 60
1.9008 -0.1764 1.3199 60 60 60
0.8798 -3.3938 -0.0810 60 60 60
3.0204 -32.5131 6.2382 60 60 60
0.5928 -4.6467 1.5153 60 60 60
-0.8842 3.1605 0.0091 60 60 60
0.9362 0.0007 1.8391 60 60 60
3.6637 8.6757 3.2243 60 60 60
-0.4761 -4.3310 -0.1271 60 60 60
9.9270 8.7913 1.1474 60 60 60
0.9390 0.0006 1.8392 60 60 60
16.8374 -16.1882 0.0021 60 60 60
-7.8190 -11.8398 4.2888 60 60 60
0.9021 0.0011 1.8383 60 60 60
-6.6384 -1.0620 0.7521 60 60 60
0.5902 0.4802 1.5014 60 60 60
0.9732 0.4630 1.5766 60 60 60
1.4546 -11.2140 3.6300 60 60 60
-2.4595 -2.7419 -0.0482 60 60 60
1.7537 7.8089 -0.0532 60 60 60
2.7519 8.9891 2.1984 60 60 60
0.8980 0.0012 1.8382 60 60 60
-27.1539 -8.4999 3.7937 60 60 60
7.4233 6.7558 -0.0059 60 60 60
2.3591 -3.3323 -0.0849 60 60 60
-1.2222 4.5471 -0.0027 60 60 60
0.9482 0.0005 1.8394 60 60 60
4.8941 3.2937 0.0156 60 60 60
0.9092 0.0010 1.8385 60 60 60
-7.6590 -9.5944 -0.2086 60 60 60
4.4880 -3.1593 -0.1030 60 60 60
0.9449 0.0005 1.8393 60 60 60
0.9398 0.0006 1.8392 60 60 60
10.2006 -5.2516 1.1483 60 60 60
10.8156 -28.8719 5.5942 60 60 60
0.9476 0.0005 1.8394 60 60 60
0.9550 0.0004 1.8395 60 60 60
-0.2681 8.3424 -0.0738 60 60 60
4.0360 -4.3017 0.8030 60 60 60
0.2617 -7.5671 -0.1411 60 60 60
1.5355 -11.0473 0.4871 60 60 60
0.9530 0.0005 1.8395 60 60 60
-4.0967 -4.5803 1.7409 60 60 60
2.1573 -3.7161 -0.1028 60 60 60
3.5264 8.7265 3.4515 60 60 60
-1.8985 -2.9056 -0.0482 60 60 60
3.7944 -11.1122 0.6035 60 60 60
0.6566 5.1513 -0.0063 60 60 60
-13.3879 5.8236 -0.0127 60 60 60
0.8972 0.0011 1.8382 60 60 60
-0.8750 -3.8837 -0.1017 60 60 60
5.3376 -10.6391 1.0689 60 60 60
-3.1311 10.8779 2.8771 60 60 60
0.9620 0.0003 1.8397 60 60 60
-1.3489 -4.3915 -0.1209 60 60 60
1.8423 -11.1676 3.6083 60 60 60
5.5019 -2.8644 -0.0997 60 60 60
11.0862 7.7910 0.1810 60 60 60
6.7895 7.9337 0.8881 60 60 60
4.5234 -1.7597 -0.0542 60 60 60
0.9981 -0.4386 1.5793 60 60 60
-1.0074 -3.5081 -0.0759 60 60 60
3.2333 8.7662 1.1109 60 60 60
-4.8622 2.4788 0.0041 60 60 60
2.5968 -0.5340 0.9932 60 60 60
-4.3705 -1.6381 -0.0601 60 60 60
3.8207 -4.0361 -0.1420 60 60 60
2.4106 2.8870 0.0079 60 60 60
0.8902 0.0011 1.8380 60 60 60
0.9170 0.0009 1.8387 60 60 60
7.8385 8.1724 3.5524 60 60 60
2.7670 5.8664 -0.0153 60 60 60
5.8212 -4.3392 1.7534 60 60 60
0.8176 9.4159 0.0842 60 60 60
-1.5408 3.0449 0.0108 60 60 60
-6.0380 -4.3317 2.9186 60 60 60
4.2152 -6.3953 -0.0487 60 60 60
10.4156 8.3916 0.2262 60 60 60
-5.9645 -1.5414 -0.0300 60 60 60
1.3286 -0.3366 1.5005 60 60 60
6.2375 -10.5459 2.6682 60 60 60
-0.0192 -3.5657 -0.0816 60 60 60
8.7707 -10.2740 2.9612 60 60 60
1.7237 -6.1156 -0.1475 60 60 60
4.9617 -0.9126 -0.0166 60 60 60
-9.0115 1.0138 -0.0507 60 60 60
4.0186 3.7275 0.0317 60 60 60
1.5600 3.7177 0.0138 60 60 60
0.0258 -0.2993 1.4840 60 60 60
-3.1609 -4.6779 1.1433 60 60 60
1.8776 -3.3473 -0.0861 60 60 60
1.8939 0.1772 1.3205 60 60 60
-7.2056 -3.4174 -0.0873 60 60 60
2.7371 4.7653 0.0192 60 60 60
0.9284 0.0007 1.8390 60 60 60
5.5502 7.8802 2.9262 60 60 60
2.9998 8.8684 1.3319 60 60 60
-4.2299 2.6015 0.0015 60 60 60
2.3259 9.1007 2.0036 60 60 60
4.7950 -13.1107 2.5826 60 60 60
6.7198 -4.4231 0.3476 60 60 60
6.6634 7.9509 3.2016 60 60 60
-5.0499 -11.6165 0.8646 60 60 60
3.9211 -3.9281 -0.1375 60 60 60
5.1972 -7.9112 0.5653 60 60 60
2.8578 -11.0363 3.2952 60 60 60
1.7078 -3.8933 -0.1030 60 60 60
0.9522 0.0005 1.8395 60 60 60
-4.6741 -4.2658 0.5963 60 60 60
1.4025 0.0395 1.4919 60 60 60
9.2534 -10.2193 1.1214 60 60 60
1.4351 0.2156 1.4831 60 60 60
-4.9932 -0.6965 -0.0349 60 60 60
5.6835 -10.6104 3.2246 60 60 60
-3.3416 2.4315 0.0119 60 60 60
