ply
format ascii 1.0
element vertex 1524
property float x
property float y
property float z
property uchar red
property uchar green
property uchar blue
end_header
-29.8308 -16.7124 1.6742 60 60 60
0.4627 10.1248 0.4874 60 60 60
-15.2919 11.7750 0.4374 60 60 60
1.7434 -3.5454 0.0420 60 60 60
-12.8859 11.7089 0.5584 60 60 60
-3.3943 16.3928 1.2506 60 60 60
0.3949 -0.0504 1.6060 60 60 60
4.7919 10.5209 1.7990 60 60 60
-0.0778 3.0594 -0.0137 60 60 60
45.4108 -43.8937 1.9368 60 60 60
-6.7242 -3.7908 0.0040 60 60 60
-6.6686 2.2042 -0.0102 60 60 60
0.7209 -0.0009 1.8377 60 60 60
0.9844 -9.2537 0.0316 60 60 60
1.2603 -0.0304 1.5231 60 60 60
-5.6927 -3.8072 0.0052 60 60 60
-3.7012 4.5936 -0.0387 60 60 60
-0.5033 2.9097 -0.0127 60 60 60
-2.9332 -3.6356 0.0146 60 60 60
0.4885 -0.5045 1.4905 60 60 60
-45.0157 -33.9704 0.0916 60 60 60
3.7856 -4.4126 0.0557 60 60 60
2.6236 -8.7880 0.0444 60 60 60
9.4547 13.2109 3.1817 60 60 60
1.5854 4.9848 0.2597 60 60 60
0.7305 -0.0008 1.8378 60 60 60
0.7168 -0.0009 1.8376 60 60 60
0.8602 -0.0003 1.8393 60 60 60
2.6635 -6.8180 0.0690 60 60 60
-4.0547 16.4891 0.8537 60 60 60
0.2883 -0.3383 1.5121 60 60 60
0.7081 -0.0009 1.8375 60 60 60
-0.5689 3.2971 -0.0139 60 60 60
-1.6034 6.3051 0.3336 60 60 60
0.7684 -0.0007 1.8383 60 60 60
-26.3205 0.1235 -0.0316 60 60 60
1.2150 0.2482 1.4894 60 60 60
-2.6353 4.1922 -0.0339 60 60 60
0.2731 4.6022 0.1958 60 60 60
-23.8255 -20.3400 0.8275 60 60 60
-4.4126 -23.9536 2.9659 60 60 60
-0.1106 3.2371 -0.0130 60 60 60
-37.4497 -1.7717 7.2594 60 60 60
-0.0860 0.1507 1.4888 60 60 60
5.8064 6.3011 2.3177 60 60 60
-20.8526 15.0209 5.5570 60 60 60
0.8857 3.1744 -0.0165 60 60 60
-4.5476 5.3319 0.2050 60 60 60
-0.4058 -2.8501 0.0193 60 60 60
1.2317 0.1830 1.4779 60 60 60
-5.0613 -5.7100 0.0107 60 60 60
0.8533 -0.0004 1.8392 60 60 60
0.7039 -0.0009 1.8375 60 60 60
-2.5147 8.9740 0.4001 60 60 60
0.1786 0.2612 1.5072 60 60 60
5.5401 6.6914 0.3934 60 60 60
5.1440 3.2384 0.0132 60 60 60
-2.1742 2.7766 -0.0114 60 60 60
68.9643 -54.9363 1.8735 60 60 60
0.8731 -0.0003 1.8395 60 60 60
-3.6516 7.3066 0.3749 60 60 60
-0.6847 -5.1225 0.0425 60 60 60
0.7747 0.4337 1.5791 60 60 60
-2.4701 -4.4655 0.0246 60 60 60
-5.6304 2.9261 -0.0198 60 60 60
-8.5889 -2.2495 0.0012 60 60 60
3.8458 3.8859 0.0760 60 60 60
-3.6954 3.8481 -0.0371 60 60 60
-0.6157 3.5170 -0.0159 60 60 60
-1.2008 -3.0808 0.0291 60 60 60
2.3573 4.0491 0.0982 60 60 60
2.4412 6.4193 2.2981 60 60 60
-2.1093 -2.7052 0.0171 60 60 60
-77.8728 -4.1396 7.4101 60 60 60
2.8177 11.3376 1.8525 60 60 60
12.9405 -8.0818 0.1207 60 60 60
-3.2209 4.3039 -0.0361 60 60 60
0.6591 0.4579 1.5660 60 60 60
20.5860 16.4961 0.8471 60 60 60
0.6621 -0.0011 1.8369 60 60 60
-0.2154 6.5690 0.3295 60 60 60
5.0232 -0.2900 0.0220 60 60 60
7.6675 15.8684 4.6115 60 60 60
0.7102 -0.0009 1.8375 60 60 60
0.8877 -0.0002 1.8396 60 60 60
-0.6275 4.3943 0.0923 60 60 60
-0.4493 4.3586 -0.0009 60 60 60
5.4113 -9.8961 0.1246 60 60 60
0.6941 -0.0010 1.8373 60 60 60
-6.0841 3.7852 -0.0340 60 60 60
-5.4227 -22.8098 2.9569 60 60 60
0.9000 -0.0002 1.8398 60 60 60
-2.0602 -2.7522 0.0173 60 60 60
1.1881 -0.3810 1.4884 60 60 60
-1.7756 -8.5625 0.3812 60 60 60
-3.7792 2.9207 -0.0189 60 60 60
1.2175 -6.0037 0.0613 60 60 60
-11.7401 -7.7183 0.3788 60 60 60
2.7289 -21.2533 -0.3295 60 60 60
-13.4036 17.4515 5.4722 60 60 60
-1.7717 -17.8053 4.7497 60 60 60
-9.0865 -4.6232 -0.0037 60 60 60
1.6907 7.7644 0.3816 60 60 60
-41.3296 -11.2788 11.0618 60 60 60
-8.8553 -22.4882 1.9398 60 60 60
-0.0482 15.9465 3.4496 60 60 60
-5.2348 -1.9016 -0.0005 60 60 60
0.1084 -0.3963 1.4882 60 60 60
0.7173 0.4618 1.5726 60 60 60
-9.2225 12.9744 1.3946 60 60 60
0.2056 -0.2364 1.5148 60 60 60
1.9025 -3.0693 0.0375 60 60 60
4.4287 -5.8343 0.0717 60 60 60
0.0367 -4.8436 0.0420 60 60 60
-1.8800 -17.8023 4.3272 60 60 60
1.1228 -3.1408 0.0266 60 60 60
-21.2183 16.0085 4.3839 60 60 60
0.7581 15.8443 3.4105 60 60 60
-6.9856 -7.0779 0.0054 60 60 60
-1.8521 6.4844 0.2793 60 60 60
-38.5264 -6.4654 6.4909 60 60 60
-1.3463 -4.9629 0.0362 60 60 60
0.8608 -0.0003 1.8393 60 60 60
1.1381 -0.3957 1.4891 60 60 60
1.1033 -3.2962 0.0412 60 60 60
-0.0884 -7.4126 0.0453 60 60 60
1.3024 0.3497 1.4594 60 60 60
0.8402 -0.0004 1.8391 60 60 60
27.2932 -29.9912 0.0785 60 60 60
7.0458 -9.1564 0.0630 60 60 60
-1.7878 4.2695 -0.0299 60 60 60
0.8611 -0.0003 1.8393 60 60 60
0.7699 -0.0007 1.8383 60 60 60
2.4493 11.3901 2.6689 60 60 60
2.5179 -5.1427 0.0615 60 60 60
-14.8424 3.1001 -0.0054 60 60 60
1.1862 -0.3156 1.4921 60 60 60
-4.1239 16.4054 4.0700 60 60 60
3.4154 6.7744 3.1890 60 60 60
1.0465 0.4373 1.4800 60 60 60
1.6229 11.4592 3.7744 60 60 60
3.4552 -4.1872 0.0517 60 60 60
6.0464 2.4843 0.0137 60 60 60
2.8163 0.2572 0.8847 60 60 60
-3.6946 16.3572 4.0396 60 60 60
1.1546 11.5061 3.7891 60 60 60
1.1121 0.4343 1.4738 60 60 60
5.0366 1.7546 0.0180 60 60 60
1.1753 -0.3787 1.4769 60 60 60
-6.4650 6.2105 0.2466 60 60 60
-1.3161 4.1293 -0.0301 60 60 60
3.8735 3.6144 0.0104 60 60 60
-14.5593 5.1599 0.7287 60 60 60
8.3684 -7.5828 0.0891 60 60 60
-4.5488 -8.4744 0.2730 60 60 60
0.0281 0.4835 1.4547 60 60 60
1.2596 -0.2106 1.4929 60 60 60
2.7679 5.8652 0.3400 60 60 60
45.4036 -43.8800 4.8570 60 60 60
-3.5328 -2.9997 0.0107 60 60 60
-85.0885 -21.4111 -0.3282 60 60 60
-0.5426 11.1082 0.8961 60 60 60
11.5463 -21.2304 3.6671 60 60 60
-5.4640 1.3439 -0.0058 60 60 60
-3.0496 6.4289 3.2190 60 60 60
3.5759 -21.0818 -0.3424 60 60 60
2.1400 -2.9535 0.0379 60 60 60
-4.5311 16.7521 1.6616 60 60 60
1.2584 -4.7499 0.0547 60 60 60
-6.6231 7.3222 0.3455 60 60 60
2.6572 -4.6570 0.0560 60 60 60
2.1707 3.0385 0.0032 60 60 60
0.8240 -0.0005 1.8389 60 60 60
1.1557 -0.4269 1.4872 60 60 60
1.9594 -2.8665 0.0307 60 60 60
0.3401 -0.3134 1.5062 60 60 60
1.0529 -8.1925 0.0375 60 60 60
-39.1380 -5.3642 10.4196 60 60 60
0.8548 -0.0004 1.8393 60 60 60
1.1580 10.0497 0.7103 60 60 60
4.9747 3.9948 0.2100 60 60 60
1.3403 0.0784 1.5104 60 60 60
0.8683 -0.0003 1.8394 60 60 60
-4.5832 2.3376 -0.0076 60 60 60
-4.6186 12.2399 1.7343 60 60 60
0.3120 -5.6230 0.0531 60 60 60
0.4661 4.2245 -0.0099 60 60 60
-2.9643 2.7598 -0.0143 60 60 60
-1.5243 -7.2727 0.0432 60 60 60
0.7671 4.3542 0.1722 60 60 60
-0.1750 -7.4161 0.0441 60 60 60
0.2228 0.0975 1.5308 60 60 60
-6.3367 10.8305 0.5601 60 60 60
2.4247 0.4002 0.9956 60 60 60
-15.9621 5.8646 1.8690 60 60 60
6.6721 -37.5337 -0.3030 60 60 60
1.7249 8.6248 0.4342 60 60 60
-8.5693 3.1259 -0.0182 60 60 60
-1.8126 4.2541 -0.0294 60 60 60
2.7645 10.5456 1.0963 60 60 60
-80.7358 0.9184 7.6387 60 60 60
-41.3578 -10.7632 8.9450 60 60 60
1.2325 0.0118 1.5206 60 60 60
-7.8649 0.3211 -0.0058 60 60 60
-4.8946 12.2116 3.3170 60 60 60
-10.6407 -7.8937 0.7732 60 60 60
-8.9752 0.9930 -0.0088 60 60 60
-1.0154 7.0070 0.3860 60 60 60
0.7813 -0.0006 1.8384 60 60 60
4.8869 4.0541 0.2186 60 60 60
3.2709 -3.9042 0.0500 60 60 60
1.5181 -3.6050 0.0464 60 60 60
-5.1648 11.9163 1.4338 60 60 60
0.7781 4.8516 0.2243 60 60 60
-12.1047 14.9420 4.5671 60 60 60
0.7209 -0.0009 1.8377 60 60 60
0.8133 -0.0005 1.8388 60 60 60
2.9904 3.5725 0.0098 60 60 60
3.9771 -4.8077 0.0607 60 60 60
-6.8800 -0.6530 0.0018 60 60 60
-39.5280 -9.8005 6.6487 60 60 60
0.7634 -3.7283 0.0465 60 60 60
-5.2322 12.2894 2.3807 60 60 60
0.0536 3.6854 -0.0093 60 60 60
3.4174 -7.3344 0.0662 60 60 60
0.1595 6.0450 0.3020 60 60 60
0.7156 -0.0009 1.8376 60 60 60
3.7593 -4.9635 0.0619 60 60 60
-1.7268 6.5198 0.4505 60 60 60
-3.4455 6.8764 0.2611 60 60 60
0.3462 15.9607 1.5772 60 60 60
8.3787 16.4720 4.3042 60 60 60
-1.7975 -2.9690 0.0215 60 60 60
0.7523 -0.0007 1.8381 60 60 60
10.5602 -23.9941 0.2456 60 60 60
1.2508 0.0448 1.5245 60 60 60
-1.0928 -9.9789 0.8771 60 60 60
1.6962 -3.7928 0.0451 60 60 60
11.9780 -11.1699 0.3861 60 60 60
0.7168 -0.0009 1.8376 60 60 60
0.8560 -0.0003 1.8393 60 60 60
-13.1219 17.5660 1.7616 60 60 60
-9.1294 -7.3665 0.0066 60 60 60
1.1803 -0.3830 1.4916 60 60 60
-3.6944 -8.4824 0.0901 60 60 60
3.0053 11.2991 1.5795 60 60 60
1.2591 0.2855 1.4761 60 60 60
3.3008 3.3193 0.0101 60 60 60
1.2056 -0.4138 1.5252 60 60 60
-45.2248 -38.9275 2.7273 60 60 60
3.8812 4.3112 0.2342 60 60 60
5.8807 -1.4466 0.0141 60 60 60
0.8420 -0.0004 1.8391 60 60 60
51.5362 -39.0282 9.3407 60 60 60
0.3191 0.2157 1.5203 60 60 60
-2.2176 -6.3785 0.0285 60 60 60
2.2625 -3.5779 0.0404 60 60 60
1.8033 -3.5236 0.0424 60 60 60
0.8494 -0.0004 1.8392 60 60 60
11.5622 19.0174 5.2846 60 60 60
0.7102 -0.0009 1.8375 60 60 60
-4.8590 3.1566 -0.0344 60 60 60
0.7831 -0.0006 1.8384 60 60 60
-21.5135 -16.1745 3.5740 60 60 60
1.1164 0.4487 1.4857 60 60 60
2.5939 3.8425 0.0072 60 60 60
-2.4071 -4.0293 0.0218 60 60 60
0.8138 3.5111 -0.0129 60 60 60
6.4186 7.1924 2.8161 60 60 60
0.3517 0.0090 1.5978 60 60 60
-25.6590 14.6383 3.2750 60 60 60
-73.0443 -35.4003 3.4243 60 60 60
0.8485 -4.8150 0.0508 60 60 60
4.1166 8.7970 0.4744 60 60 60
3.3966 3.6033 0.0151 60 60 60
-2.9045 -2.6601 0.0109 60 60 60
0.8701 -0.0003 1.8394 60 60 60
0.4247 -0.4870 1.4966 60 60 60
1.3938 -0.2022 1.4598 60 60 60
-11.2203 12.3016 1.8053 60 60 60
0.7843 -0.0006 1.8384 60 60 60
-3.3466 3.5101 -0.0264 60 60 60
3.4239 4.5905 0.2542 60 60 60
0.1059 -0.4982 1.4647 60 60 60
-3.1692 16.2954 4.0035 60 60 60
-5.7808 10.7938 0.5850 60 60 60
-24.8371 15.4426 6.0761 60 60 60
0.8342 -0.0004 1.8390 60 60 60
0.6699 -0.0011 1.8370 60 60 60
-1.0593 -4.6555 0.0333 60 60 60
3.6192 -3.2465 0.0403 60 60 60
-2.1106 6.7169 3.3461 60 60 60
7.8854 9.1488 0.8986 60 60 60
2.7916 -0.3000 0.8956 60 60 60
0.8569 -0.0003 1.8393 60 60 60
-8.2388 -22.1353 3.0424 60 60 60
-2.2261 -7.1312 0.0354 60 60 60
-0.5016 5.2086 0.2254 60 60 60
0.4293 0.3840 1.4983 60 60 60
54.2290 -39.1634 9.5870 60 60 60
-1.0677 4.4510 0.0209 60 60 60
-1.0879 -9.9170 0.4060 60 60 60
-4.3324 -2.5894 0.0069 60 60 60
-7.7822 1.2747 -0.0043 60 60 60
-0.2237 3.0215 -0.0166 60 60 60
1.5747 -4.3540 0.0564 60 60 60
-3.4352 -22.0688 5.5018 60 60 60
0.8605 -0.0003 1.8393 60 60 60
1.2498 0.3678 1.4777 60 60 60
0.3135 -0.2806 1.5199 60 60 60
0.0422 0.3468 1.4857 60 60 60
0.7335 -0.0008 1.8378 60 60 60
-1.9188 10.4168 0.4545 60 60 60
1.0975 3.9079 -0.0127 60 60 60
-4.7381 12.1597 4.5841 60 60 60
42.8637 -51.0267 9.7802 60 60 60
1.3410 0.0550 1.5306 60 60 60
5.1019 -8.8456 0.0552 60 60 60
5.3769 -4.1896 0.0527 60 60 60
4.7543 3.7973 0.1515 60 60 60
30.0489 29.1963 3.2243 60 60 60
0.7141 -0.0009 1.8376 60 60 60
0.6164 -3.1766 0.0312 60 60 60
0.4437 -0.4630 1.4951 60 60 60
-6.3764 12.7220 3.1187 60 60 60
1.1894 0.2560 1.4822 60 60 60
1.2050 -0.4567 1.4735 60 60 60
11.1210 -11.1927 0.8044 60 60 60
-2.2251 -8.7697 0.5563 60 60 60
2.3241 9.6633 0.4752 60 60 60
-5.5314 1.0146 -0.0074 60 60 60
-2.5607 -3.0203 0.0187 60 60 60
0.7150 -0.0009 1.8376 60 60 60
0.4511 3.5222 -0.0096 60 60 60
-28.3083 -27.6888 3.3165 60 60 60
0.1109 0.3128 1.4932 60 60 60
0.7628 -0.0007 1.8382 60 60 60
-6.8557 1.4115 -0.0090 60 60 60
2.9415 -3.7663 0.0491 60 60 60
0.8563 -0.0003 1.8393 60 60 60
0.8563 -0.0003 1.8393 60 60 60
-5.8510 -1.9260 0.0031 60 60 60
1.2230 -0.3833 1.5266 60 60 60
-2.4300 3.8525 -0.0323 60 60 60
0.6848 -0.0010 1.8372 60 60 60
0.4098 16.0311 0.8255 60 60 60
5.9187 -4.4136 0.0624 60 60 60
0.8917 -0.4210 1.5704 60 60 60
0.7753 -0.0006 1.8383 60 60 60
1.2489 0.2892 1.4802 60 60 60
3.6587 11.2490 2.6462 60 60 60
1.2150 -0.4562 1.5086 60 60 60
0.7965 -0.0006 1.8386 60 60 60
-1.7601 -8.1898 0.0285 60 60 60
-14.9730 7.3720 3.4937 60 60 60
0.7108 -0.0009 1.8376 60 60 60
0.4430 -5.6238 0.0522 60 60 60
0.7153 -0.0009 1.8376 60 60 60
4.1098 3.8277 0.0257 60 60 60
2.4024 -0.5779 0.9906 60 60 60
6.2105 -27.3668 -0.4111 60 60 60
1.4085 -0.1216 1.4588 60 60 60
0.6496 -0.0011 1.8368 60 60 60
-1.1294 4.4483 0.0136 60 60 60
0.9703 -4.4793 0.0510 60 60 60
0.8650 -0.0003 1.8394 60 60 60
0.8467 -0.0004 1.8392 60 60 60
0.2565 0.1330 1.5419 60 60 60
-2.8832 4.6598 0.0952 60 60 60
0.7093 -0.0009 1.8375 60 60 60
0.6430 -0.0012 1.8367 60 60 60
0.8915 15.8883 1.9278 60 60 60
0.7798 -0.0006 1.8384 60 60 60
7.6049 -6.3650 0.0874 60 60 60
-2.8869 -3.6747 0.0153 60 60 60
2.8885 -4.1553 0.0506 60 60 60
4.9470 0.8992 0.0231 60 60 60
1.4526 -4.0940 0.0562 60 60 60
1.8783 -2.9046 0.0306 60 60 60
6.0474 9.3628 0.7518 60 60 60
2.9307 -3.4655 0.0407 60 60 60
0.8142 -0.0005 1.8388 60 60 60
5.8621 1.5673 0.0195 60 60 60
0.8201 -0.0005 1.8389 60 60 60
0.0296 -0.3550 1.4897 60 60 60
-1.3900 5.4689 0.2320 60 60 60
-12.7074 17.5075 2.7886 60 60 60
0.2293 -0.2837 1.5174 60 60 60
-3.8269 2.8376 -0.0169 60 60 60
-0.4501 3.1240 -0.0105 60 60 60
-36.0885 7.8541 7.2179 60 60 60
2.6752 -3.3542 0.0362 60 60 60
4.7406 1.6941 0.0152 60 60 60
-2.0581 3.6680 -0.0221 60 60 60
16.1096 -9.1854 0.1507 60 60 60
2.7589 10.5689 0.8430 60 60 60
-13.2939 -5.9776 -0.0049 60 60 60
4.6178 9.9603 1.2994 60 60 60
-10.5679 -23.4209 1.9760 60 60 60
1.2430 -0.4081 1.5301 60 60 60
1.2550 0.1603 1.4882 60 60 60
0.1148 0.4777 1.4593 60 60 60
-3.6551 2.3206 -0.0107 60 60 60
0.6089 -4.5096 0.0496 60 60 60
-1.1637 2.8000 -0.0317 60 60 60
0.8432 -0.0004 1.8391 60 60 60
-5.6724 -5.1744 0.0040 60 60 60
-3.0138 16.3052 2.8144 60 60 60
6.2188 5.7997 0.4123 60 60 60
-0.6957 2.8674 -0.0369 60 60 60
0.8267 -0.0005 1.8389 60 60 60
-2.4476 -8.6118 0.1328 60 60 60
-3.4057 -8.5258 0.1002 60 60 60
0.4014 0.0267 1.6066 60 60 60
1.2476 0.3017 1.4774 60 60 60
-8.3314 12.5749 4.7113 60 60 60
43.5244 -44.0304 6.2475 60 60 60
2.5728 5.9679 0.3376 60 60 60
-0.6372 -8.9783 0.1058 60 60 60
4.9832 -20.0051 -0.2939 60 60 60
-11.4313 12.2302 1.8077 60 60 60
2.2619 8.4713 0.4308 60 60 60
0.3162 4.2216 -0.0128 60 60 60
-7.9565 -18.0716 2.8814 60 60 60
0.7424 -0.0008 1.8379 60 60 60
-2.7705 5.0433 0.1771 60 60 60
-0.2731 -3.0604 0.0266 60 60 60
-0.8522 2.9482 -0.0138 60 60 60
0.3532 -0.3757 1.5111 60 60 60
1.1902 0.4049 1.5296 60 60 60
5.7090 -4.7040 0.0576 60 60 60
5.0965 4.4515 0.2606 60 60 60
-18.1378 -23.7891 0.0322 60 60 60
0.7566 0.4360 1.5669 60 60 60
-12.3863 1.3607 -0.0122 60 60 60
0.4736 -9.9396 0.1510 60 60 60
-6.7089 2.0284 -0.0077 60 60 60
1.1201 0.3231 1.4952 60 60 60
-44.0485 -3.9521 0.8054 60 60 60
-2.0758 2.8814 -0.0139 60 60 60
0.1094 -0.3854 1.4907 60 60 60
23.2124 19.6492 4.1905 60 60 60
0.4922 0.4406 1.4983 60 60 60
0.6812 -0.0010 1.8372 60 60 60
1.4431 -16.9322 -0.2597 60 60 60
0.7633 -0.0007 1.8382 60 60 60
9.7234 6.7429 3.2396 60 60 60
0.6809 -0.0010 1.8372 60 60 60
-2.0084 -3.1387 0.0174 60 60 60
1.7372 4.9837 0.2465 60 60 60
0.6752 -0.0010 1.8371 60 60 60
8.0596 4.7781 0.2342 60 60 60
0.8174 -0.0005 1.8388 60 60 60
7.5697 6.4068 0.3790 60 60 60
-13.8562 -4.9548 -0.0081 60 60 60
0.8761 -0.0003 1.8395 60 60 60
-14.9854 -7.2422 0.9647 60 60 60
6.0179 -0.6762 0.0186 60 60 60
1.2851 -4.7430 0.0555 60 60 60
-8.9596 -8.0681 0.8468 60 60 60
-14.1749 -7.2921 0.2151 60 60 60
-37.3878 4.4994 10.0912 60 60 60
0.3262 -0.3146 1.5173 60 60 60
0.8748 10.0850 0.4842 60 60 60
3.3478 3.9483 0.0477 60 60 60
-0.3809 -4.1418 0.0443 60 60 60
-0.4850 -8.3135 0.0309 60 60 60
0.8608 -0.0003 1.8393 60 60 60
-3.4354 -8.7003 0.7603 60 60 60
-0.9665 -3.7146 0.0312 60 60 60
-41.2157 -14.4529 6.9351 60 60 60
-7.0279 3.9523 -0.0303 60 60 60
-2.7609 -6.1873 0.0217 60 60 60
0.9156 -0.0001 1.8399 60 60 60
1.8146 5.7617 0.3026 60 60 60
-1.9152 -3.5325 0.0267 60 60 60
4.1458 10.3435 1.0496 60 60 60
-8.9322 -0.5413 -0.0013 60 60 60
0.8809 -0.0002 1.8395 60 60 60
7.6066 16.0204 4.2183 60 60 60
-19.2041 -34.7986 0.2465 60 60 60
-7.9767 -8.1469 0.3216 60 60 60
0.1959 15.8790 4.9512 60 60 60
5.8723 4.6443 0.2486 60 60 60
-18.1313 8.3826 0.4151 60 60 60
-5.4027 12.2921 2.7109 60 60 60
5.8497 -2.7673 0.0133 60 60 60
0.8578 -0.0003 1.8393 60 60 60
-21.0072 -34.6040 0.2560 60 60 60
8.0787 16.2576 2.1686 60 60 60
0.7281 -0.0008 1.8378 60 60 60
-9.3543 5.8355 0.1922 60 60 60
3.0175 -6.0222 0.0570 60 60 60
0.2793 -5.6261 0.0521 60 60 60
3.3060 -4.2756 0.0568 60 60 60
-0.0821 0.1109 1.4927 60 60 60
3.9134 -12.1323 -0.0760 60 60 60
-34.1686 15.5632 5.4704 60 60 60
-0.3184 3.1687 -0.0095 60 60 60
0.8426 -0.0004 1.8391 60 60 60
5.1861 -1.2211 0.0169 60 60 60
-1.7798 6.5227 0.2759 60 60 60
0.0854 6.0571 0.2983 60 60 60
-3.9203 16.3755 3.6495 60 60 60
4.4669 5.5925 0.3346 60 60 60
-1.0093 -3.6942 0.0324 60 60 60
-8.9352 -0.3182 0.0014 60 60 60
3.2463 -2.9274 0.0285 60 60 60
-3.7448 -24.2589 2.9555 60 60 60
-3.3269 16.2810 5.2177 60 60 60
-1.4237 -17.5210 4.6888 60 60 60
1.2540 -0.4266 1.5396 60 60 60
0.7816 -0.0006 1.8384 60 60 60
-11.4658 17.3446 3.2372 60 60 60
5.1094 10.2838 1.5294 60 60 60
-14.2800 5.6469 -0.0263 60 60 60
-5.6046 3.0045 -0.0227 60 60 60
-0.0922 0.1289 1.4880 60 60 60
-5.8266 2.4711 -0.0195 60 60 60
-12.1391 17.4161 3.2751 60 60 60
-9.6803 -7.8722 0.2056 60 60 60
2.0078 -13.4654 -0.1752 60 60 60
1.0624 -0.5136 1.4874 60 60 60
5.5809 3.3773 0.0187 60 60 60
13.0187 -29.9311 3.6204 60 60 60
4.7729 1.5957 0.0167 60 60 60
0.8312 -0.0004 1.8390 60 60 60
-1.6892 7.8479 0.3941 60 60 60
1.3315 -0.0568 1.5205 60 60 60
1.0322 11.5088 4.0702 60 60 60
1.2836 -0.3741 1.5406 60 60 60
-0.0921 -0.1523 1.4902 60 60 60
60.1132 46.2534 2.4073 60 60 60
0.1188 -0.0419 1.5096 60 60 60
0.5037 -0.5166 1.4890 60 60 60
9.4499 12.6470 4.2264 60 60 60
-0.0973 -0.1143 1.4899 60 60 60
-7.0696 -3.1450 0.0039 60 60 60
2.8992 -3.2083 0.0323 60 60 60
-16.1551 11.9583 0.3841 60 60 60
-4.4358 -4.2354 0.0122 60 60 60
7.3798 5.3509 0.2899 60 60 60
0.7660 -0.0007 1.8382 60 60 60
1.2397 -0.2926 1.4873 60 60 60
-6.0069 11.9376 0.7920 60 60 60
-8.7444 6.2525 0.2292 60 60 60
1.4176 5.4499 0.2718 60 60 60
-0.1873 3.0325 -0.0164 60 60 60
4.1732 -6.0308 0.0686 60 60 60
-4.6002 11.8085 1.4355 60 60 60
-47.5700 -25.3142 6.6919 60 60 60
3.6407 4.9383 0.2780 60 60 60
0.4701 -3.1778 0.0289 60 60 60
-6.8598 -0.8309 0.0012 60 60 60
0.8452 -0.0004 1.8392 60 60 60
-8.9958 9.8810 0.5081 60 60 60
2.4868 9.5580 3.6855 60 60 60
6.4551 7.7665 3.1029 60 60 60
1.2708 -0.0505 1.4815 60 60 60
-2.2715 -5.7058 0.0235 60 60 60
-5.7651 -7.9711 0.0072 60 60 60
0.7610 -0.0007 1.8382 60 60 60
0.8234 -0.0004 1.8389 60 60 60
0.8640 -8.2250 0.0361 60 60 60
0.8698 -0.0003 1.8394 60 60 60
-17.9540 2.9359 0.0943 60 60 60
-4.2047 -3.6367 0.0107 60 60 60
3.6649 4.4422 0.2458 60 60 60
0.8716 -0.4346 1.5668 60 60 60
5.2475 -18.8219 5.2552 60 60 60
0.1387 -0.1743 1.5122 60 60 60
-13.9680 17.5046 5.5430 60 60 60
2.9843 -3.7404 0.0482 60 60 60
11.5949 -11.1720 0.4143 60 60 60
-8.9821 0.3079 -0.0040 60 60 60
-5.5349 -0.6151 0.0005 60 60 60
3.4462 -3.7796 0.0471 60 60 60
8.3374 4.5243 0.2091 60 60 60
0.9543 0.5395 1.4817 60 60 60
2.2985 4.1688 0.1854 60 60 60
4.5524 -5.7319 0.0734 60 60 60
0.1243 -0.0374 1.5120 60 60 60
10.0127 12.3982 3.4978 60 60 60
-6.7547 -1.4919 -0.0034 60 60 60
0.8157 -0.0005 1.8388 60 60 60
0.2789 3.9662 -0.0157 60 60 60
-5.1315 7.0446 0.2853 60 60 60
5.3399 -8.6827 0.0561 60 60 60
-1.8793 4.5434 0.1418 60 60 60
0.4170 -0.4402 1.4950 60 60 60
-36.2065 8.3414 8.1528 60 60 60
0.1032 -0.0513 1.5641 60 60 60
1.8464 3.4283 -0.0006 60 60 60
-0.6117 4.5287 0.1707 60 60 60
-12.6129 12.9413 1.8094 60 60 60
1.3065 0.0163 1.5316 60 60 60
-0.5732 3.5306 -0.0150 60 60 60
-36.8237 1.5469 8.0866 60 60 60
-4.7942 1.7581 -0.0035 60 60 60
4.1964 -2.1413 0.0198 60 60 60
0.8142 -0.0005 1.8388 60 60 60
0.9752 -6.0318 0.0633 60 60 60
0.7123 -0.0009 1.8376 60 60 60
-15.5408 4.1727 2.6564 60 60 60
0.8605 -0.0003 1.8393 60 60 60
0.1268 0.3485 1.4922 60 60 60
0.8339 -0.0004 1.8390 60 60 60
0.6893 -0.0010 1.8373 60 60 60
5.9265 -2.6165 0.0122 60 60 60
0.7783 -0.0006 1.8384 60 60 60
0.8426 -0.0004 1.8391 60 60 60
0.4765 0.4411 1.4925 60 60 60
-6.9324 7.1933 0.3302 60 60 60
25.6070 -39.9717 -0.1019 60 60 60
4.9711 -4.6040 0.0609 60 60 60
2.4867 9.9143 3.5102 60 60 60
4.6468 9.8668 1.3017 60 60 60
-1.5844 -8.6709 0.1505 60 60 60
0.7780 -0.0006 1.8384 60 60 60
1.3949 0.1367 1.4564 60 60 60
2.9635 -7.5496 0.0632 60 60 60
4.5314 2.1688 0.0142 60 60 60
-0.0811 -0.2447 1.4878 60 60 60
2.8270 0.2969 0.8777 60 60 60
0.6481 -0.0011 1.8368 60 60 60
-8.2210 -3.2433 0.0016 60 60 60
4.1089 -8.0593 0.0588 60 60 60
0.4974 4.8852 0.2259 60 60 60
1.2261 -0.3231 1.5230 60 60 60
-0.8911 -4.6963 0.0364 60 60 60
4.5798 1.2657 0.0221 60 60 60
1.2645 0.4115 1.5204 60 60 60
0.8650 -0.0003 1.8394 60 60 60
1.7414 6.3087 0.3300 60 60 60
1.7949 3.2333 -0.0016 60 60 60
9.0836 -6.6386 0.0892 60 60 60
5.1932 1.2284 0.0194 60 60 60
1.1636 5.4997 0.2733 60 60 60
25.3356 -26.2100 0.2444 60 60 60
-18.7500 -6.7312 0.8278 60 60 60
-8.1121 -18.1264 2.8904 60 60 60
-24.0684 3.9113 1.8820 60 60 60
-5.5019 5.7163 0.2119 60 60 60
-7.7379 -19.0146 3.8795 60 60 60
11.0238 -22.7356 4.9513 60 60 60
0.5702 -4.2275 0.0464 60 60 60
-3.1153 -2.9160 0.0131 60 60 60
1.0550 -5.5616 0.0565 60 60 60
-0.9581 -7.3592 0.0444 60 60 60
0.2234 0.2268 1.5121 60 60 60
0.7690 -0.0007 1.8383 60 60 60
-40.4091 -12.3297 6.7960 60 60 60
-3.1996 -3.3912 0.0103 60 60 60
-4.8859 1.4637 -0.0050 60 60 60
5.2507 -3.5807 0.0417 60 60 60
1.1041 0.3869 1.4775 60 60 60
1.1189 0.4981 1.4651 60 60 60
1.5461 0.3563 1.3705 60 60 60
-5.6140 12.3314 2.3951 60 60 60
3.7189 -28.3327 -0.3963 60 60 60
0.7628 -0.0007 1.8382 60 60 60
0.8396 -0.0004 1.8391 60 60 60
-36.7409 2.4128 7.1892 60 60 60
-4.5616 3.6406 -0.0392 60 60 60
3.2535 -3.2257 0.0364 60 60 60
0.8548 -5.1595 0.0580 60 60 60
1.2578 0.1075 1.4771 60 60 60
-8.4857 -2.5685 0.0013 60 60 60
0.6403 -0.0012 1.8367 60 60 60
0.8527 -0.0003 1.8392 60 60 60
-21.9358 14.3437 1.8523 60 60 60
1.1231 -0.4200 1.4863 60 60 60
-3.3274 12.6102 4.5320 60 60 60
0.6976 -0.0010 1.8374 60 60 60
0.8139 -0.0005 1.8388 60 60 60
6.5518 -20.7563 0.5673 60 60 60
6.7203 10.0986 0.9244 60 60 60
-2.1731 5.7739 0.2409 60 60 60
0.3875 0.3562 1.5101 60 60 60
0.6034 4.5985 0.1942 60 60 60
-1.0165 -3.1821 0.0284 60 60 60
0.1545 -0.0156 1.5448 60 60 60
4.6670 -1.0766 0.0040 60 60 60
-0.8219 -3.5085 0.0308 60 60 60
3.7171 5.8619 0.3878 60 60 60
3.3712 6.1135 0.5439 60 60 60
0.8809 -0.0002 1.8395 60 60 60
-0.4186 16.0465 1.2161 60 60 60
-0.0812 -5.6248 0.0485 60 60 60
-6.8359 4.3141 -0.0333 60 60 60
0.7717 -0.0007 1.8383 60 60 60
9.6691 6.2585 0.3710 60 60 60
0.8174 -0.0005 1.8388 60 60 60
4.9829 0.6726 0.0239 60 60 60
-0.9996 4.7564 0.1886 60 60 60
14.2228 -27.3244 2.0533 60 60 60
0.7708 -0.0006 1.8383 60 60 60
-12.8170 14.2657 2.2567 60 60 60
-36.7705 2.1964 7.1905 60 60 60
-0.8213 9.0007 0.4308 60 60 60
8.4543 9.0809 0.8626 60 60 60
-0.0079 -0.1238 1.4986 60 60 60
1.5668 -0.2806 1.3863 60 60 60
0.6564 -0.0011 1.8369 60 60 60
-5.0104 12.2408 3.0083 60 60 60
-1.8160 6.5037 0.2776 60 60 60
-24.7207 15.1599 5.3351 60 60 60
1.7762 3.6963 -0.0022 60 60 60
0.8411 -0.0004 1.8391 60 60 60
5.0313 3.3976 0.0151 60 60 60
6.4133 5.1179 0.2719 60 60 60
0.6540 4.6113 0.1964 60 60 60
15.6451 -22.7216 5.1484 60 60 60
4.3105 -1.9336 0.0189 60 60 60
-5.3077 12.2868 2.7063 60 60 60
1.7235 -9.1248 0.0290 60 60 60
1.1614 0.4444 1.5280 60 60 60
-38.4978 -6.2228 7.4327 60 60 60
-12.6650 14.2905 2.7111 60 60 60
-8.3823 8.1464 0.3817 60 60 60
-1.3119 6.5521 0.2967 60 60 60
-11.9382 -2.7210 -0.0078 60 60 60
-7.0802 -5.1855 -0.0039 60 60 60
0.8713 -0.0003 1.8394 60 60 60
-6.0966 -8.3617 0.4342 60 60 60
-0.5222 -7.3999 0.0445 60 60 60
0.9933 -0.5253 1.4854 60 60 60
17.1003 11.2296 0.5726 60 60 60
0.7159 -4.2124 0.0506 60 60 60
1.4804 0.4420 1.3809 60 60 60
-5.0533 2.7058 -0.0223 60 60 60
0.7102 -0.0009 1.8375 60 60 60
2.7884 -3.0061 0.0353 60 60 60
-9.5800 9.6458 0.4910 60 60 60
-1.2563 5.9209 0.2810 60 60 60
-0.8586 5.9989 0.2846 60 60 60
1.0772 0.4425 1.4844 60 60 60
-21.1778 14.8360 4.3265 60 60 60
3.3060 5.5573 0.3426 60 60 60
0.6676 4.2152 -0.0119 60 60 60
-2.5372 -17.6519 0.5577 60 60 60
-0.5356 16.0173 3.0955 60 60 60
14.5990 -9.1851 1.0568 60 60 60
0.6863 -0.0010 1.8372 60 60 60
-0.9068 4.4307 0.0482 60 60 60
-9.7911 -21.8679 3.6667 60 60 60
5.8488 3.8719 0.1941 60 60 60
2.0421 -2.8325 0.0269 60 60 60
0.1390 -0.1954 1.5103 60 60 60
1.1055 0.4021 1.4895 60 60 60
0.5862 7.9996 0.3884 60 60 60
1.2087 0.3883 1.5275 60 60 60
2.7782 7.2745 0.3987 60 60 60
4.2507 11.1978 1.8165 60 60 60
-1.2295 4.4603 -0.0043 60 60 60
0.1951 0.3419 1.4972 60 60 60
0.7126 -0.0009 1.8376 60 60 60
0.8656 -0.0003 1.8394 60 60 60
0.7123 -0.0009 1.8376 60 60 60
-6.1294 -0.8342 -0.0010 60 60 60
2.0836 11.4060 3.7618 60 60 60
8.2215 -7.7900 0.0854 60 60 60
-3.9157 2.6691 -0.0123 60 60 60
-52.2672 -19.2873 5.6542 60 60 60
-0.6905 4.3197 -0.0116 60 60 60
0.2828 0.0135 1.5483 60 60 60
-12.3024 -7.6551 0.6960 60 60 60
-0.4532 -9.1713 0.0690 60 60 60
0.9066 -6.0476 0.0610 60 60 60
0.6275 -0.0012 1.8365 60 60 60
-8.5894 10.0410 0.5187 60 60 60
-4.2317 4.9019 0.1444 60 60 60
5.3366 -0.2036 0.0182 60 60 60
0.7156 -0.0009 1.8376 60 60 60
-2.5259 5.6223 0.2378 60 60 60
-6.5901 4.7034 -0.0346 60 60 60
1.8092 3.4510 -0.0041 60 60 60
2.4403 4.3635 0.2213 60 60 60
0.7717 -0.0007 1.8383 60 60 60
-4.1548 -2.8694 0.0092 60 60 60
5.2975 0.6370 0.0211 60 60 60
-0.1229 -4.4875 0.0446 60 60 60
0.8761 -0.0003 1.8395 60 60 60
3.9657 4.6972 0.2747 60 60 60
-58.9455 -25.7125 1.6282 60 60 60
0.7135 -0.0009 1.8376 60 60 60
-4.8029 -5.9161 0.0115 60 60 60
0.8764 -0.0003 1.8395 60 60 60
1.7377 4.1384 0.0444 60 60 60
0.9440 -3.5031 0.0459 60 60 60
2.4594 -0.3360 0.9904 60 60 60
0.8644 -0.0003 1.8394 60 60 60
-15.3272 5.7219 0.2644 60 60 60
1.3140 -0.2435 1.4761 60 60 60
6.0523 -2.3377 0.0112 60 60 60
-0.0786 -0.3420 1.4782 60 60 60
0.8752 -0.0003 1.8395 60 60 60
10.6288 -11.1663 0.8330 60 60 60
0.0483 4.3304 0.1674 60 60 60
-13.8279 13.2277 4.1268 60 60 60
0.6552 -0.0011 1.8369 60 60 60
-36.0538 8.0700 7.2198 60 60 60
-3.3160 -6.7874 0.0195 60 60 60
-14.4405 -8.6650 0.9317 60 60 60
2.4520 -7.7615 0.0584 60 60 60
0.6979 -0.0010 1.8374 60 60 60
-6.7794 4.4006 -0.0327 60 60 60
5.2528 -5.1453 0.0673 60 60 60
-21.2172 -6.4530 0.7310 60 60 60
1.6413 11.4810 2.4200 60 60 60
3.4964 -3.0021 0.0354 60 60 60
-13.5956 8.2679 0.2967 60 60 60
-3.2836 -3.3038 0.0095 60 60 60
0.1734 0.1643 1.5401 60 60 60
2.4455 -0.4286 0.9886 60 60 60
0.8312 -0.0004 1.8390 60 60 60
14.9350 -72.9068 6.2488 60 60 60
-4.9010 10.8707 0.6073 60 60 60
0.6417 5.1824 0.2528 60 60 60
4.2458 1.5680 0.0080 60 60 60
3.3151 -3.5105 0.0427 60 60 60
1.3245 -4.4087 0.0572 60 60 60
2.1339 3.2872 0.0024 60 60 60
-29.5696 15.0655 6.6550 60 60 60
0.8638 -0.4413 1.5786 60 60 60
0.7245 -0.0009 1.8377 60 60 60
-10.2360 2.4399 -0.0107 60 60 60
2.4267 3.1174 0.0024 60 60 60
1.2876 -0.3156 1.4756 60 60 60
0.7114 -0.0009 1.8376 60 60 60
0.9436 4.2127 0.0918 60 60 60
-3.8102 2.8645 -0.0171 60 60 60
0.7738 -0.0006 1.8383 60 60 60
1.4751 -4.7129 0.0523 60 60 60
-0.5669 -7.3980 0.0442 60 60 60
-9.7738 -21.1839 2.5200 60 60 60
3.9311 4.2732 0.2328 60 60 60
4.4835 3.8487 0.2042 60 60 60
9.3293 -6.2832 0.0877 60 60 60
1.2601 4.4518 0.2123 60 60 60
0.3473 0.2817 1.5163 60 60 60
0.7493 -0.0008 1.8380 60 60 60
1.2494 -0.3509 1.5234 60 60 60
3.1224 -5.3445 0.0650 60 60 60
-11.5207 12.1575 1.4025 60 60 60
-4.6637 -1.8972 0.0059 60 60 60
0.4433 0.4267 1.5055 60 60 60
-7.8414 6.5700 0.3001 60 60 60
0.3721 6.0574 0.2995 60 60 60
-6.5971 2.5159 -0.0171 60 60 60
-3.0866 2.5786 -0.0110 60 60 60
2.5405 7.9488 2.7949 60 60 60
14.9729 -20.1301 5.9996 60 60 60
1.0059 6.4887 0.3278 60 60 60
0.0387 0.3028 1.4916 60 60 60
1.9181 4.1253 0.0237 60 60 60
-5.7792 6.7067 0.2638 60 60 60
-3.3229 -8.7256 0.7604 60 60 60
3.5808 9.1019 0.4747 60 60 60
3.4071 -18.5856 4.7434 60 60 60
-0.4791 -7.4033 0.0443 60 60 60
2.1138 8.5029 0.4340 60 60 60
-7.2547 5.7474 0.1996 60 60 60
0.7741 -0.0006 1.8383 60 60 60
-0.0701 0.3550 1.4718 60 60 60
0.0818 -0.0485 1.5145 60 60 60
-14.6153 17.5939 4.5141 60 60 60
6.5430 -7.6471 0.0685 60 60 60
1.1302 0.4120 1.5310 60 60 60
5.8089 -5.5824 0.0705 60 60 60
-20.5450 -6.3914 0.2411 60 60 60
0.0906 -0.4909 1.4611 60 60 60
0.9828 0.5193 1.4829 60 60 60
0.7777 -0.0006 1.8384 60 60 60
0.7613 -0.0007 1.8382 60 60 60
9.6742 8.5260 0.5080 60 60 60
4.1112 3.3314 0.0174 60 60 60
4.8731 -2.7643 0.0227 60 60 60
-11.1572 12.0657 1.0116 60 60 60
-37.2950 13.1183 6.6208 60 60 60
2.4290 0.3904 0.9947 60 60 60
3.0974 6.1846 0.3978 60 60 60
0.2919 0.2759 1.5119 60 60 60
-8.7707 -1.6558 -0.0036 60 60 60
-2.8080 16.2882 2.8063 60 60 60
16.9679 18.7154 5.0351 60 60 60
0.0346 -4.5041 0.0450 60 60 60
3.3100 -5.8571 0.0613 60 60 60
0.7221 -0.0009 1.8377 60 60 60
0.8991 -0.0002 1.8397 60 60 60
-1.3349 -9.9699 0.6401 60 60 60
0.8853 -0.0002 1.8396 60 60 60
1.2349 -0.2785 1.4934 60 60 60
5.7922 7.7587 0.4475 60 60 60
-0.3063 -4.1503 0.0471 60 60 60
0.1101 15.9533 2.6992 60 60 60
2.4916 -20.8942 3.1374 60 60 60
0.3384 0.0032 1.5918 60 60 60
0.8939 -0.4717 1.5712 60 60 60
-5.5624 0.6813 -0.0040 60 60 60
0.8919 -0.0002 1.8397 60 60 60
6.9614 -10.8100 0.7488 60 60 60
0.6552 -0.0011 1.8369 60 60 60
-19.6659 3.6949 0.4164 60 60 60
0.3432 0.2717 1.5173 60 60 60
1.6859 4.6468 0.2285 60 60 60
0.6282 -3.3380 0.0406 60 60 60
4.5680 -2.0154 0.0200 60 60 60
6.8897 -4.3777 0.0462 60 60 60
0.3732 0.2526 1.5188 60 60 60
39.6172 26.2129 1.0401 60 60 60
-12.4129 -7.2108 0.0027 60 60 60
3.0081 8.1572 0.4317 60 60 60
-10.5701 -5.6191 -0.0009 60 60 60
-9.3220 5.8951 0.1914 60 60 60
-1.5130 4.6442 0.1638 60 60 60
3.0329 -4.9138 0.0548 60 60 60
1.2803 -0.3584 1.5268 60 60 60
0.7559 -0.0007 1.8381 60 60 60
-7.5790 -8.0488 0.0873 60 60 60
6.3428 10.1266 0.9454 60 60 60
-2.0936 5.2454 0.2172 60 60 60
5.2165 1.1493 0.0177 60 60 60
-3.9219 5.6835 0.2307 60 60 60
-1.1061 2.8232 -0.0251 60 60 60
3.3946 5.4920 0.3446 60 60 60
-8.9348 -0.2586 0.0022 60 60 60
2.5942 6.5372 0.3769 60 60 60
2.8053 0.2434 0.8903 60 60 60
-36.2410 8.1240 8.1504 60 60 60
0.3021 6.0393 0.3041 60 60 60
-3.6493 -2.8573 0.0076 60 60 60
1.9539 2.9519 0.0017 60 60 60
-14.8580 2.9159 -0.0033 60 60 60
0.7287 -0.0008 1.8378 60 60 60
-14.8994 2.6405 -0.0028 60 60 60
0.9334 -3.7141 0.0467 60 60 60
0.7108 -0.0009 1.8376 60 60 60
-2.7443 -3.7845 0.0186 60 60 60
-40.3383 -9.4919 9.7576 60 60 60
-3.4548 -17.0462 0.6116 60 60 60
-7.1915 -2.8752 0.0039 60 60 60
5.4400 1.6273 0.0185 60 60 60
1.1264 -0.4287 1.4811 60 60 60
-11.2902 -7.8349 0.7420 60 60 60
-0.0037 -3.1263 0.0264 60 60 60
2.4146 -5.6793 0.0618 60 60 60
4.4582 -4.3910 0.0616 60 60 60
0.3450 -6.6863 0.0527 60 60 60
-2.0530 9.0021 0.4099 60 60 60
0.6815 -4.8329 0.0487 60 60 60
-0.1977 5.6354 0.2567 60 60 60
0.7443 -0.0008 1.8380 60 60 60
0.4037 -0.4453 1.5063 60 60 60
0.6313 -0.0012 1.8365 60 60 60
-0.3129 4.8354 0.2175 60 60 60
0.6957 0.4433 1.5712 60 60 60
0.1803 0.2989 1.5006 60 60 60
-1.4688 -3.7780 0.0342 60 60 60
0.8578 -0.0003 1.8393 60 60 60
0.0597 0.0566 1.5464 60 60 60
1.1171 -0.5355 1.4774 60 60 60
10.3236 -10.4516 0.2152 60 60 60
1.0395 -4.7860 0.0538 60 60 60
4.8917 6.1262 0.3631 60 60 60
0.8605 -0.0003 1.8393 60 60 60
3.5216 -8.3658 0.0567 60 60 60
-1.3859 -2.7413 0.0164 60 60 60
0.8378 -0.0004 1.8391 60 60 60
1.3195 -5.9849 0.0617 60 60 60
2.4168 4.1130 0.1842 60 60 60
5.0198 -1.7648 0.0139 60 60 60
-0.7643 5.5469 0.2560 60 60 60
1.6266 -5.9251 0.0605 60 60 60
-13.7014 12.2684 0.9341 60 60 60
1.2124 -0.3925 1.5286 60 60 60
2.3017 -3.5566 0.0412 60 60 60
1.4224 4.1113 -0.0219 60 60 60
64.7111 -73.0856 6.6221 60 60 60
3.0215 -21.1695 4.6464 60 60 60
1.3571 -0.3090 1.4622 60 60 60
-2.5428 -33.5738 0.9356 60 60 60
-11.9850 16.8213 3.7365 60 60 60
1.6542 -3.8090 0.0436 60 60 60
1.0727 -4.4653 0.0515 60 60 60
-2.9842 3.9124 -0.0361 60 60 60
0.8456 -0.0004 1.8392 60 60 60
21.4827 15.8669 0.8141 60 60 60
17.6021 18.3747 4.4526 60 60 60
1.4676 7.8242 0.3815 60 60 60
0.8545 -0.0003 1.8393 60 60 60
2.8467 -21.2359 -0.3317 60 60 60
3.2237 -21.2288 -0.3441 60 60 60
0.7377 -0.0008 1.8379 60 60 60
-20.4635 3.7148 0.8668 60 60 60
2.7830 3.7161 0.0103 60 60 60
0.7335 -0.0008 1.8378 60 60 60
7.4283 9.2136 0.9259 60 60 60
-0.3750 3.1507 -0.0102 60 60 60
-7.6391 2.1242 -0.0095 60 60 60
-0.3031 -4.8155 0.0383 60 60 60
-0.4695 3.3308 -0.0124 60 60 60
0.8184 -0.0005 1.8388 60 60 60
3.6523 5.9066 0.3876 60 60 60
-4.7362 4.4590 -0.0454 60 60 60
-5.0346 -3.5118 0.0087 60 60 60
0.7293 -0.0008 1.8378 60 60 60
1.1809 -0.3965 1.4866 60 60 60
0.7619 -0.0007 1.8382 60 60 60
3.8987 -7.0886 0.0653 60 60 60
0.4034 0.3187 1.5116 60 60 60
-15.0535 17.7836 2.3317 60 60 60
-2.5225 6.1767 0.2904 60 60 60
4.4523 3.8242 0.0788 60 60 60
0.8503 -0.0004 1.8392 60 60 60
2.4938 2.8387 -0.0002 60 60 60
2.3090 -2.8724 0.0304 60 60 60
5.3247 0.3936 0.0198 60 60 60
0.8254 -5.1696 0.0555 60 60 60
2.0800 4.5073 0.2277 60 60 60
0.8479 -0.0004 1.8392 60 60 60
3.3857 11.2667 2.6495 60 60 60
-5.0948 4.9194 -0.0049 60 60 60
3.4395 6.2011 1.0107 60 60 60
44.1755 -29.1431 0.6001 60 60 60
0.6851 -0.0010 1.8372 60 60 60
14.5632 -23.6577 5.2014 60 60 60
4.7048 6.2376 0.3706 60 60 60
1.1353 0.4889 1.5030 60 60 60
-8.8359 1.8931 -0.0063 60 60 60
1.9695 -7.9366 0.0518 60 60 60
4.5013 4.8810 0.2951 60 60 60
-0.8523 4.2880 -0.0195 60 60 60
-4.5184 -0.9898 -0.0088 60 60 60
0.8800 -0.0002 1.8395 60 60 60
1.3745 -0.2772 1.4592 60 60 60
-25.8820 16.1212 8.5027 60 60 60
0.8701 4.8600 0.2309 60 60 60
0.1526 15.9221 3.8189 60 60 60
5.6610 0.1283 0.0246 60 60 60
2.6647 3.2093 0.0051 60 60 60
-7.3253 12.3621 1.4199 60 60 60
-44.5098 -1.0307 10.4255 60 60 60
-8.4970 3.3446 -0.0195 60 60 60
0.7180 -0.0009 1.8376 60 60 60
13.2616 -11.3441 1.0710 60 60 60
3.0664 -3.3713 0.0387 60 60 60
0.3898 0.0329 1.6142 60 60 60
-3.3431 -8.7538 0.2969 60 60 60
0.7702 -0.0007 1.8383 60 60 60
-6.6549 -33.2101 1.0315 60 60 60
0.4207 -3.9783 0.0416 60 60 60
14.1591 13.7887 1.1409 60 60 60
0.2764 -3.5158 0.0436 60 60 60
2.4499 7.4231 0.3969 60 60 60
-6.9003 4.1739 -0.0298 60 60 60
-5.2350 16.5946 1.6758 60 60 60
-15.1679 -7.1041 0.1446 60 60 60
0.8339 -0.0004 1.8390 60 60 60
0.0762 -21.1212 4.2002 60 60 60
-58.3771 -25.8729 1.6240 60 60 60
-14.6405 4.1199 1.4923 60 60 60
0.8856 -22.4138 -0.3909 60 60 60
-37.3714 12.4152 6.6044 60 60 60
0.6406 -0.0012 1.8367 60 60 60
-12.1135 14.6375 5.4729 60 60 60
0.0258 -0.4180 1.4777 60 60 60
1.4446 3.5815 -0.0061 60 60 60
3.0348 3.2171 0.0069 60 60 60
-7.5089 2.6650 -0.0154 60 60 60
-15.0531 0.7084 -0.0029 60 60 60
0.8248 -0.4497 1.5650 60 60 60
-1.6711 -3.3703 0.0223 60 60 60
0.0857 -7.3990 0.0484 60 60 60
-1.0963 -20.5507 4.1747 60 60 60
0.7290 -0.0008 1.8378 60 60 60
0.8456 -0.0004 1.8392 60 60 60
3.5643 4.1433 0.2047 60 60 60
0.7191 -0.0009 1.8377 60 60 60
-3.7001 5.1089 0.1896 60 60 60
2.6749 -4.2736 0.0511 60 60 60
-7.0627 5.8202 0.2165 60 60 60
-14.7626 3.6512 -0.0096 60 60 60
2.6491 11.3589 2.6639 60 60 60
-7.9160 4.6590 -0.0268 60 60 60
5.7937 -8.3363 0.0593 60 60 60
1.0668 -0.4792 1.4836 60 60 60
5.6541 3.2583 0.0178 60 60 60
-7.7661 -0.8275 0.0014 60 60 60
13.7380 -11.3695 1.0504 60 60 60
1.3810 -0.2320 1.4627 60 60 60
10.2136 17.9598 3.6096 60 60 60
0.0980 15.9604 2.3253 60 60 60
-3.9878 10.5964 0.6595 60 60 60
-0.1922 -42.7312 3.6005 60 60 60
0.7490 -0.0007 1.8380 60 60 60
1.2164 -0.3404 1.5232 60 60 60
0.8733 -0.4513 1.5714 60 60 60
-29.6970 -27.9872 1.4532 60 60 60
3.5679 6.1807 1.1641 60 60 60
-30.6843 -53.4340 5.1814 60 60 60
0.7189 -0.0009 1.8377 60 60 60
1.9777 3.1469 0.0000 60 60 60
-11.9636 -2.6474 -0.0084 60 60 60
2.2519 3.7608 -0.0059 60 60 60
-38.2426 -1.5739 10.1911 60 60 60
-6.3184 -2.7023 0.0029 60 60 60
3.1625 -3.9828 0.0496 60 60 60
-5.5943 -3.9494 0.0050 60 60 60
-17.5944 -6.0962 -0.0124 60 60 60
1.4011 -0.1243 1.4626 60 60 60
5.0324 -0.2149 0.0200 60 60 60
-4.6770 12.2271 2.3600 60 60 60
-0.6575 4.3978 0.0879 60 60 60
2.8680 7.5181 2.9304 60 60 60
0.7248 -0.0009 1.8377 60 60 60
0.8133 -0.0005 1.8388 60 60 60
4.6391 -1.8817 0.0168 60 60 60
5.9329 7.6779 0.4419 60 60 60
0.3802 -0.4221 1.5061 60 60 60
0.8907 10.2628 0.9443 60 60 60
-3.3252 10.9751 0.9105 60 60 60
-7.5610 11.9351 1.0929 60 60 60
1.1223 6.5134 0.3173 60 60 60
-0.4715 -4.7889 0.0378 60 60 60
-7.7650 -1.0286 -0.0045 60 60 60
-7.4244 7.9545 3.9883 60 60 60
-12.3758 -0.4825 -0.0109 60 60 60
5.5855 0.9989 0.0210 60 60 60
-4.5543 0.9860 -0.0135 60 60 60
7.2811 5.4629 0.2939 60 60 60
1.9395 9.7840 0.4770 60 60 60
2.7344 -3.0390 0.0382 60 60 60
-2.8863 3.4324 -0.0282 60 60 60
-17.0196 13.6042 3.4054 60 60 60
-14.0437 -7.3342 0.2232 60 60 60
0.7272 -0.0009 1.8378 60 60 60
1.3220 10.0278 0.4686 60 60 60
9.3399 13.1768 3.5485 60 60 60
4.0329 -2.8076 0.0340 60 60 60
44.2106 -28.8051 0.6012 60 60 60
-18.0323 10.6649 0.3387 60 60 60
-27.1039 -19.9502 0.0009 60 60 60
-4.0343 4.2843 -0.0415 60 60 60
-2.9665 -32.3127 2.4926 60 60 60
-11.5631 -21.6043 4.9258 60 60 60
0.3044 0.4260 1.4948 60 60 60
-8.0997 6.5219 0.2769 60 60 60
3.2390 6.1197 0.3952 60 60 60
7.2525 4.2210 0.2224 60 60 60
1.2686 0.1418 1.4839 60 60 60
0.8593 -0.0003 1.8393 60 60 60
1.5894 -0.2223 1.3817 60 60 60
1.5152 0.4099 1.3731 60 60 60
0.8617 -0.0003 1.8393 60 60 60
3.9829 5.2122 0.3171 60 60 60
32.6785 25.3854 5.0131 60 60 60
-4.0838 -2.1535 0.0027 60 60 60
0.9246 -0.0001 1.8400 60 60 60
-0.0811 4.8618 0.2204 60 60 60
-2.0665 4.5483 0.1118 60 60 60
3.2665 9.8388 0.6424 60 60 60
-3.8817 -3.2405 0.0117 60 60 60
-6.0422 -22.5317 3.5180 60 60 60
1.3139 15.9303 0.8026 60 60 60
0.8302 3.1737 -0.0152 60 60 60
3.8920 3.5928 0.0112 60 60 60
1.1666 0.4825 1.5337 60 60 60
1.2393 -0.0039 1.5175 60 60 60
1.7476 3.4700 -0.0016 60 60 60
1.4049 -0.1377 1.4598 60 60 60
8.6956 -5.0091 0.0599 60 60 60
5.5685 -5.8381 0.0679 60 60 60
0.7732 -0.0007 1.8383 60 60 60
1.3914 -0.0823 1.4899 60 60 60
-3.9332 5.6306 0.2385 60 60 60
0.7965 -0.0006 1.8386 60 60 60
0.7595 -0.0007 1.8382 60 60 60
0.8309 -0.0004 1.8390 60 60 60
-0.6634 3.2506 -0.0101 60 60 60
-3.9592 16.3459 5.2778 60 60 60
1.4459 -18.4511 3.8700 60 60 60
-6.7515 -3.7488 0.0035 60 60 60
6.2157 5.3653 0.2737 60 60 60
-10.7727 -5.3111 -0.0026 60 60 60
67.2433 -51.0900 7.7167 60 60 60
0.8351 -0.0004 1.8390 60 60 60
4.9211 -2.6926 0.0213 60 60 60
-1.1883 -6.6108 0.0407 60 60 60
-1.4981 5.4588 0.2251 60 60 60
-1.0827 13.6782 4.2451 60 60 60
-2.8068 5.4906 0.2337 60 60 60
0.8312 -0.0004 1.8390 60 60 60
-3.4034 -2.5652 0.0049 60 60 60
-0.6775 16.0664 1.9734 60 60 60
15.7195 -10.0491 0.1462 60 60 60
2.5770 6.3559 2.1379 60 60 60
-73.2875 -9.9937 0.0939 60 60 60
0.4138 0.0443 1.6112 60 60 60
0.0699 -10.0615 0.6171 60 60 60
-6.0756 -1.2352 -0.0059 60 60 60
-0.8954 16.1002 1.2233 60 60 60
-0.7231 -4.7365 0.0375 60 60 60
2.9047 -2.6826 0.0223 60 60 60
2.7733 3.1314 0.0046 60 60 60
1.1256 8.7674 0.4358 60 60 60
2.8369 11.3224 2.3901 60 60 60
1.0133 3.2948 -0.0147 60 60 60
3.7140 10.4491 1.0629 60 60 60
4.4402 -2.7999 0.0245 60 60 60
0.7502 -0.0008 1.8380 60 60 60
0.7702 -0.0007 1.8383 60 60 60
-5.0737 -2.2701 0.0034 60 60 60
-9.4531 -17.2411 5.2873 60 60 60
6.8026 3.5535 0.0214 60 60 60
0.6917 -0.0010 1.8373 60 60 60
9.4128 5.8457 2.6380 60 60 60
0.8414 -0.0004 1.8391 60 60 60
-0.4275 3.5865 -0.0181 60 60 60
-23.1176 -6.2627 0.6538 60 60 60
1.1478 -0.3920 1.4858 60 60 60
5.2924 -0.6621 0.0188 60 60 60
25.4026 -23.6714 1.0930 60 60 60
0.9009 -0.0002 1.8398 60 60 60
5.3466 -6.0542 0.0659 60 60 60
-14.5397 4.7618 0.7390 60 60 60
-29.5092 -46.5430 12.7854 60 60 60
2.2271 3.4827 0.0028 60 60 60
77.4357 60.2638 7.1385 60 60 60
-1.1627 -3.6324 0.0301 60 60 60
-16.8383 5.7350 3.1735 60 60 60
-37.7842 5.6797 9.2608 60 60 60
-1.8018 2.8014 -0.0143 60 60 60
1.1543 0.4489 1.5290 60 60 60
-4.9210 -1.0987 0.0011 60 60 60
0.4866 0.4934 1.4923 60 60 60
0.7765 -0.0006 1.8384 60 60 60
1.2220 4.7487 0.2346 60 60 60
-21.7486 14.1341 5.6042 60 60 60
0.4150 0.0576 1.6103 60 60 60
4.0152 4.1778 0.2368 60 60 60
0.7544 -0.0007 1.8381 60 60 60
-0.6115 11.1332 0.8948 60 60 60
-26.1509 -1.2800 -0.0309 60 60 60
-1.3390 4.1130 -0.0281 60 60 60
1.3887 -5.9757 0.0606 60 60 60
0.0922 0.0454 1.5586 60 60 60
0.7514 -0.0007 1.8381 60 60 60
0.7063 -0.0009 1.8375 60 60 60
-10.6109 -5.5579 -0.0012 60 60 60
-10.4351 -0.1664 -0.0076 60 60 60
-5.8760 -1.8503 0.0031 60 60 60
0.1870 -3.3196 0.0376 60 60 60
-5.3084 2.0385 -0.0167 60 60 60
0.8536 -0.0003 1.8392 60 60 60
0.7147 -0.0009 1.8376 60 60 60
-0.7289 -2.8994 0.0213 60 60 60
-61.6207 -29.0485 4.7853 60 60 60
2.4587 6.5288 1.9893 60 60 60
2.4177 -4.7624 0.0575 60 60 60
-5.3068 -1.6939 -0.0010 60 60 60
0.8482 -0.0004 1.8392 60 60 60
-7.4044 12.5365 2.4650 60 60 60
15.4319 -22.9844 3.2475 60 60 60
0.3342 -0.3327 1.5159 60 60 60
0.6118 15.9276 1.1985 60 60 60
-4.5109 3.6972 -0.0371 60 60 60
-3.8860 16.3527 4.4536 60 60 60
-52.9657 -31.4048 8.7846 60 60 60
-0.5642 -4.4087 0.0444 60 60 60
1.2086 0.2732 1.4857 60 60 60
0.6433 -0.0012 1.8367 60 60 60
0.1913 0.4957 1.4565 60 60 60
1.1023 0.4983 1.4712 60 60 60
-1.5596 2.7295 -0.0201 60 60 60
0.6693 -0.0011 1.8370 60 60 60
0.7281 -0.0008 1.8378 60 60 60
-37.9960 -4.3020 7.3441 60 60 60
0.9108 -0.0001 1.8399 60 60 60
-9.4261 -28.6474 -0.2104 60 60 60
-16.8156 4.1690 2.7161 60 60 60
0.7613 -0.0007 1.8382 60 60 60
0.3791 -3.0248 0.0170 60 60 60
1.7654 4.1422 0.0391 60 60 60
-1.3592 -8.8362 0.7761 60 60 60
4.8198 -2.8345 0.0256 60 60 60
1.2366 0.3225 1.4768 60 60 60
-0.6083 -2.9494 0.0229 60 60 60
-19.8803 -6.5869 0.7843 60 60 60
2.5756 4.9955 0.2811 60 60 60
2.0495 4.2531 0.1947 60 60 60
-7.4633 -2.1333 0.0045 60 60 60
-4.8264 12.2248 2.9972 60 60 60
13.1830 20.4173 2.2098 60 60 60
2.6047 -5.1052 0.0614 60 60 60
0.8339 -0.0004 1.8390 60 60 60
0.8327 -0.0004 1.8390 60 60 60
-20.4801 -34.6447 0.2543 60 60 60
-2.6666 5.0833 0.1826 60 60 60
-13.0701 8.5128 0.3235 60 60 60
5.1017 7.0843 0.3935 60 60 60
-9.7538 -3.1817 -0.0002 60 60 60
1.2794 -0.3847 1.5399 60 60 60
0.7368 -0.0008 1.8379 60 60 60
2.8162 -4.5847 0.0531 60 60 60
17.1435 18.4829 5.0210 60 60 60
-7.4376 2.9628 -0.0223 60 60 60
9.8675 6.5237 3.2329 60 60 60
-1.2427 -2.8169 0.0265 60 60 60
0.7206 -0.0009 1.8377 60 60 60
3.1508 -2.7195 0.0262 60 60 60
0.8222 -0.0005 1.8389 60 60 60
4.8913 2.8761 0.0140 60 60 60
1.1755 0.4189 1.5308 60 60 60
8.5358 -10.9130 0.3290 60 60 60
0.3297 -0.3319 1.5141 60 60 60
-36.4722 4.5856 7.1884 60 60 60
6.2709 -3.0364 0.0174 60 60 60
1.1279 0.4944 1.4837 60 60 60
2.2258 -20.3602 4.5480 60 60 60
-0.4007 -3.0307 0.0212 60 60 60
-9.3311 -46.6789 5.1476 60 60 60
4.8064 1.4710 0.0203 60 60 60
6.2279 6.1400 2.1240 60 60 60
0.4208 -0.4812 1.4977 60 60 60
-6.3864 -8.3196 0.9386 60 60 60
-3.7069 -8.6083 0.3015 60 60 60
-4.6323 -4.9959 0.0115 60 60 60
-5.2891 -24.0452 4.7448 60 60 60
2.3149 3.7248 -0.0044 60 60 60
0.0459 -0.0272 1.5855 60 60 60
0.6328 -0.0012 1.8366 60 60 60
0.6771 4.3339 0.1720 60 60 60
4.4530 -7.8420 0.0623 60 60 60
-10.8847 -5.1180 -0.0026 60 60 60
-26.2533 -0.5002 -0.0311 60 60 60
1.9476 11.4746 1.6064 60 60 60
0.1828 -0.4832 1.4726 60 60 60
-2.7698 -50.9503 1.6210 60 60 60
-1.9521 -3.1835 0.0173 60 60 60
6.3683 -9.7865 0.0523 60 60 60
-2.9480 -17.1027 0.6030 60 60 60
3.6375 -9.6824 0.0471 60 60 60
5.6069 -15.3207 -0.2511 60 60 60
2.8726 3.3559 0.0027 60 60 60
0.8689 -0.0003 1.8394 60 60 60
-19.3805 -6.5572 0.3108 60 60 60
-0.0673 0.2623 1.4848 60 60 60
0.7219 -0.0009 1.8377 60 60 60
-6.1249 3.7022 -0.0325 60 60 60
0.7245 -0.0009 1.8377 60 60 60
1.7600 3.2552 -0.0053 60 60 60
0.8784 -0.4326 1.5666 60 60 60
1.8193 3.6804 -0.0024 60 60 60
4.6247 -4.2284 0.0612 60 60 60
18.9232 16.3896 1.4882 60 60 60
1.2784 11.4909 3.5106 60 60 60
0.7120 -0.0009 1.8376 60 60 60
-3.2526 -33.1142 2.5140 60 60 60
-12.3592 -7.2800 0.0029 60 60 60
-1.9792 -2.8319 0.0157 60 60 60
6.7737 3.7220 0.1842 60 60 60
0.8746 -0.0003 1.8395 60 60 60
1.2515 -0.5490 1.4644 60 60 60
-43.6026 3.9101 10.3111 60 60 60
12.9198 8.8121 0.5328 60 60 60
-5.5459 -0.5045 0.0008 60 60 60
0.8752 -0.0003 1.8395 60 60 60
0.7242 -0.0009 1.8377 60 60 60
5.3298 0.2570 0.0209 60 60 60
0.7084 -0.0009 1.8375 60 60 60
0.3139 0.4863 1.4789 60 60 60
9.3936 -6.1760 0.0881 60 60 60
-44.1738 -38.9359 2.7017 60 60 60
1.2722 0.2614 1.4758 60 60 60
-0.7415 5.9834 0.2939 60 60 60
-7.6512 12.2443 1.7727 60 60 60
0.8806 -0.0002 1.8395 60 60 60
15.9423 -10.7176 0.5323 60 60 60
2.6213 -3.6391 0.0505 60 60 60
-0.8039 6.5193 0.3258 60 60 60
18.1088 -49.5457 4.7875 60 60 60
-1.3067 -6.5848 0.0413 60 60 60
-25.8210 14.5908 6.1453 60 60 60
8.1979 10.2062 1.7137 60 60 60
1.2765 0.0648 1.4714 60 60 60
0.6395 3.1731 -0.0212 60 60 60
-3.0695 5.3958 0.2207 60 60 60
-7.8671 0.1210 -0.0061 60 60 60
-6.8957 -22.0790 3.5301 60 60 60
-1.5047 -17.3943 5.0955 60 60 60
1.7273 4.0192 -0.0217 60 60 60
0.7054 -0.0009 1.8375 60 60 60
4.4014 -5.8654 0.0694 60 60 60
-3.7776 -2.6859 0.0042 60 60 60
-1.4106 -8.8118 0.5628 60 60 60
1.1053 0.3508 1.4916 60 60 60
-1.6963 3.9133 -0.0246 60 60 60
-1.3855 -6.5716 0.0403 60 60 60
-8.8504 1.8399 -0.0071 60 60 60
34.5031 27.0691 7.2503 60 60 60
-20.8185 -23.0505 0.0184 60 60 60
-25.8362 14.5816 5.4227 60 60 60
3.0789 -3.0760 0.0286 60 60 60
5.8056 -6.8194 0.0675 60 60 60
0.7347 -0.0008 1.8379 60 60 60
0.8951 -0.4318 1.5777 60 60 60
0.0968 -0.3710 1.4887 60 60 60
4.6807 -1.7893 0.0163 60 60 60
0.5204 0.4820 1.4888 60 60 60
-5.9171 -23.1625 5.2547 60 60 60
0.8387 -0.0004 1.8391 60 60 60
1.3333 -0.1458 1.4777 60 60 60
0.9152 -0.4190 1.5656 60 60 60
0.7269 -0.0008 1.8378 60 60 60
0.6236 -0.0012 1.8364 60 60 60
7.0317 7.6921 2.6587 60 60 60
0.6597 -0.0011 1.8369 60 60 60
0.7072 -0.0009 1.8375 60 60 60
2.4357 8.2057 2.4304 60 60 60
1.2552 0.1790 1.4843 60 60 60
-6.4846 -2.2933 0.0029 60 60 60
0.4168 -0.1964 1.5747 60 60 60
-8.2915 3.9441 -0.0275 60 60 60
-2.5295 4.7058 0.1418 60 60 60
-0.7831 3.2059 -0.0141 60 60 60
0.8127 -0.0005 1.8388 60 60 60
-20.4120 14.4020 7.3112 60 60 60
-2.5151 10.4217 0.4444 60 60 60
15.0140 12.3274 0.6763 60 60 60
0.1576 0.0047 1.5457 60 60 60
3.7556 5.8526 0.3847 60 60 60
7.6773 -6.2851 0.0860 60 60 60
-26.2781 14.6372 6.2064 60 60 60
-9.5013 -3.9029 -0.0089 60 60 60
-29.4978 15.6983 6.6831 60 60 60
0.8654 -3.0284 0.0140 60 60 60
-56.2031 -33.2599 1.4948 60 60 60
0.3680 6.5651 0.3334 60 60 60
7.4413 10.2825 1.4464 60 60 60
0.6459 3.7453 -0.0105 60 60 60
-3.8873 -8.6042 0.9876 60 60 60
-8.7562 12.3592 1.0508 60 60 60
0.0218 -0.0760 1.5560 60 60 60
0.7292 3.3510 -0.0146 60 60 60
-0.0163 -4.2009 0.0450 60 60 60
2.0590 3.3285 0.0008 60 60 60
-0.2145 -5.6266 0.0446 60 60 60
-0.5343 4.5593 0.1670 60 60 60
0.1876 -0.3814 1.4999 60 60 60
0.5653 4.2315 -0.0114 60 60 60
1.1876 3.2764 -0.0239 60 60 60
6.4702 6.4954 3.3731 60 60 60
1.1936 -0.3401 1.5165 60 60 60
0.1667 4.2137 -0.0158 60 60 60
-4.6208 -23.6016 2.9592 60 60 60
-3.2309 -6.8246 0.0200 60 60 60
1.2282 0.2117 1.4730 60 60 60
2.5273 4.0480 0.0672 60 60 60
0.7439 -3.0260 0.0201 60 60 60
1.3997 -0.1996 1.4570 60 60 60
-15.5101 6.8763 0.2070 60 60 60
0.4332 3.3395 -0.0165 60 60 60
6.5783 6.4623 3.3792 60 60 60
-3.0561 -2.9761 0.0157 60 60 60
1.1669 0.4949 1.5299 60 60 60
2.1446 -4.8635 0.0598 60 60 60
-0.5888 -2.9528 0.0253 60 60 60
8.7844 -4.8706 0.0578 60 60 60
-14.3582 5.3758 -0.0233 60 60 60
1.4548 6.4188 0.3224 60 60 60
0.8422 -0.0004 1.8391 60 60 60
-8.2091 4.1605 -0.0311 60 60 60
5.6558 -0.4817 0.0174 60 60 60
-3.3154 -8.5892 0.0942 60 60 60
-3.3219 16.3347 2.8268 60 60 60
0.9577 15.8525 3.0420 60 60 60
-5.0562 -8.3960 0.2506 60 60 60
-0.8234 -55.0244 1.5491 60 60 60
-4.9053 1.4345 -0.0086 60 60 60
8.9917 -10.9983 0.9289 60 60 60
-23.9293 -21.4011 0.7881 60 60 60
-0.5070 15.9936 3.8492 60 60 60
0.0018 -8.3084 0.0323 60 60 60
0.1088 -0.4013 1.4874 60 60 60
2.3942 -3.0285 0.0358 60 60 60
-34.5951 16.3176 9.2431 60 60 60
1.1069 0.3427 1.5118 60 60 60
0.8524 -0.0004 1.8392 60 60 60
-3.3922 -23.8886 2.9291 60 60 60
-14.6396 17.7360 2.3213 60 60 60
0.7678 -0.0007 1.8383 60 60 60
12.0147 19.4433 3.2510 60 60 60
5.9114 5.6338 0.2868 60 60 60
4.9826 -6.3795 0.0622 60 60 60
0.9269 10.1693 0.7039 60 60 60
3.5580 4.5086 0.2499 60 60 60
-6.6514 -22.6886 4.6788 60 60 60
-3.1594 4.8318 0.1654 60 60 60
1.5259 8.6723 0.4354 60 60 60
0.8584 -0.0003 1.8393 60 60 60
-2.1785 -2.6447 0.0140 60 60 60
-8.3043 11.0902 0.7853 60 60 60
0.5311 -8.2801 0.0319 60 60 60
2.5592 11.4106 1.8593 60 60 60
-1.6718 -3.0654 0.0212 60 60 60
0.8357 -0.0004 1.8390 60 60 60
8.7482 10.3253 1.3961 60 60 60
0.8620 -0.0003 1.8393 60 60 60
5.0357 0.1411 0.0204 60 60 60
0.8234 -0.0004 1.8389 60 60 60
0.2779 -0.4559 1.4941 60 60 60
-44.5291 -38.7891 2.7112 60 60 60
6.1668 -2.0203 0.0130 60 60 60
4.5848 5.2430 3.0053 60 60 60
3.5088 -3.7282 0.0472 60 60 60
4.5468 4.8223 0.2978 60 60 60
-4.6091 -21.8628 3.9415 60 60 60
0.8360 -0.0004 1.8390 60 60 60
1.2498 -16.9830 -0.2604 60 60 60
7.2326 10.1130 1.1736 60 60 60
-7.8678 0.0710 -0.0063 60 60 60
0.3664 -34.1294 0.0522 60 60 60
1.0170 -18.6108 3.4575 60 60 60
