ply
format ascii 1.0
element vertex 1529
property float x
property float y
property float z
property uchar red
property uchar green
property uchar blue
end_header
2.7579 -3.0507 -0.0748 60 60 60
3.0541 -8.3389 0.2987 60 60 60
1.2374 9.4230 0.5132 60 60 60
-6.8362 0.8775 -0.0218 60 60 60
0.9541 0.0004 1.8395 60 60 60
5.7745 -4.7979 0.1342 60 60 60
0.9590 0.0004 1.8396 60 60 60
5.7186 -10.6166 1.8610 60 60 60
1.6358 -0.1346 1.4320 60 60 60
3.6038 2.9329 0.0172 60 60 60
5.7921 -10.6328 1.5867 60 60 60
0.1424 -0.0386 1.5868 60 60 60
0.8881 -4.3913 -0.1317 60 60 60
10.9498 8.4681 1.6996 60 60 60
-3.7408 -11.4710 1.7351 60 60 60
0.3722 -0.4078 1.5002 60 60 60
9.3698 -4.6686 -0.1676 60 60 60
-0.9763 -2.9803 -0.0469 60 60 60
-0.0357 3.2308 0.0086 60 60 60
1.3808 0.3141 1.4874 60 60 60
0.8910 0.0012 1.8380 60 60 60
1.3890 0.4497 1.5403 60 60 60
-15.8482 2.7347 -0.1597 60 60 60
-5.7767 6.7988 -0.0836 60 60 60
-0.2130 6.1072 -0.0236 60 60 60
5.6002 -4.3402 1.7598 60 60 60
0.8777 0.0013 1.8376 60 60 60
0.0302 -0.1925 1.4967 60 60 60
-1.0841 10.1450 0.2661 60 60 60
25.7147 -22.0418 5.2922 60 60 60
2.0113 3.8184 0.0048 60 60 60
5.7585 5.9877 -0.0304 60 60 60
-3.7487 11.2430 3.8126 60 60 60
0.9235 0.0008 1.8389 60 60 60
-5.2065 8.3561 -0.0487 60 60 60
4.1850 -3.6164 -0.1257 60 60 60
5.2633 -0.4226 0.0022 60 60 60
0.8745 0.0013 1.8376 60 60 60
-4.0556 -4.5337 1.4283 60 60 60
2.3780 -3.3214 -0.0848 60 60 60
-1.4780 -4.1079 -0.0354 60 60 60
5.7396 -10.6071 2.6760 60 60 60
0.1098 -0.0114 1.5980 60 60 60
0.8980 0.0011 1.8382 60 60 60
-9.6251 12.7053 0.0478 60 60 60
3.5722 -11.3304 0.5984 60 60 60
2.5803 0.5081 1.0009 60 60 60
-0.8614 8.8653 0.0296 60 60 60
-5.7376 -3.6043 1.2532 60 60 60
0.9615 0.0003 1.8397 60 60 60
4.5690 8.3682 2.3255 60 60 60
-3.2984 2.5047 0.0101 60 60 60
1.2154 0.4305 1.5031 60 60 60
0.1776 0.0423 1.5774 60 60 60
4.9464 -4.3488 1.6412 60 60 60
-0.2100 -3.0860 -0.0546 60 60 60
-4.2770 -11.5533 0.8656 60 60 60
2.6715 9.0147 3.5056 60 60 60
1.3324 -0.3518 1.4934 60 60 60
-3.5726 -11.5291 0.5707 60 60 60
-15.3829 14.8802 6.2977 60 60 60
2.7780 -3.0440 -0.0784 60 60 60
-71.6342 34.3668 5.2872 60 60 60
4.8617 0.9797 0.0217 60 60 60
14.7236 8.8278 0.8390 60 60 60
13.6442 -10.6276 -0.3310 60 60 60
-2.0203 6.3777 -0.0133 60 60 60
-0.4490 -3.4510 -0.0698 60 60 60
1.8264 0.2916 1.3408 60 60 60
0.9533 0.0004 1.8395 60 60 60
0.2232 0.2766 1.5094 60 60 60
-0.1629 9.9009 2.1542 60 60 60
-2.6909 -3.1734 0.9787 60 60 60
11.0605 -6.2908 1.6330 60 60 60
3.2088 -18.9840 3.0219 60 60 60
-5.7365 -2.5332 -0.0644 60 60 60
0.6747 -3.2056 -0.0674 60 60 60
5.7411 1.2772 0.0216 60 60 60
-0.4232 -4.1149 0.9707 60 60 60
9.9258 8.8072 0.8502 60 60 60
0.8482 0.0016 1.8369 60 60 60
4.9126 -1.3898 -0.0466 60 60 60
0.3460 0.3003 1.5126 60 60 60
3.9795 3.7709 0.0310 60 60 60
4.7875 -1.8013 -0.0549 60 60 60
0.9436 0.0005 1.8393 60 60 60
-1.7217 -3.3950 -0.0654 60 60 60
-0.6247 -3.9572 0.3588 60 60 60
6.0430 7.8627 1.8357 60 60 60
6.1659 7.8928 2.4979 60 60 60
0.9465 0.0005 1.8393 60 60 60
-0.1043 0.2362 1.4718 60 60 60
7.4507 -7.5040 0.1094 60 60 60
-4.7632 6.1082 -0.0550 60 60 60
1.5904 5.3151 -0.0030 60 60 60
-4.0350 11.0891 0.3969 60 60 60
0.9227 0.0008 1.8388 60 60 60
1.8475 9.2367 0.9437 60 60 60
1.4318 -0.3490 1.5200 60 60 60
-5.3745 9.8578 -0.0389 60 60 60
13.7619 -10.3534 -0.3281 60 60 60
-10.3041 13.0925 2.8006 60 60 60
-4.8027 -1.7008 -0.0523 60 60 60
-3.9199 -4.6924 2.0497 60 60 60
0.9390 9.4209 1.2111 60 60 60
-0.1007 0.1729 1.4779 60 60 60
4.7480 8.3032 1.8901 60 60 60
-1.7744 -11.3236 2.4765 60 60 60
0.9425 0.0006 1.8393 60 60 60
0.9468 0.0005 1.8394 60 60 60
-1.3715 4.0943 0.0072 60 60 60
-28.1259 -4.1734 8.0392 60 60 60
-1.7531 -11.3140 3.0186 60 60 60
-0.3181 4.7532 -0.0012 60 60 60
4.4947 -10.8206 1.3807 60 60 60
-2.2699 3.5653 0.0119 60 60 60
7.5155 -10.3840 2.9454 60 60 60
1.3767 0.1806 1.4879 60 60 60
0.3202 9.6330 2.1240 60 60 60
4.7886 8.3210 3.4056 60 60 60
1.1110 -4.6168 1.8175 60 60 60
1.5265 -11.1383 2.0408 60 60 60
-3.6884 -2.9090 -0.0627 60 60 60
3.8994 -10.9951 0.6069 60 60 60
4.6400 -13.6722 0.6386 60 60 60
-0.0981 0.2603 1.4716 60 60 60
5.1300 -3.6745 -0.1387 60 60 60
0.8172 -4.6401 1.8311 60 60 60
-1.9125 -2.8871 -0.0457 60 60 60
-4.4489 -2.5860 -0.0679 60 60 60
-19.6578 16.1368 4.0637 60 60 60
2.4959 -4.5930 -0.1602 60 60 60
1.6738 -7.2423 -0.1277 60 60 60
-13.3203 14.3524 4.4398 60 60 60
4.0181 -4.3234 0.9306 60 60 60
0.8916 0.0011 1.8380 60 60 60
3.7275 8.6601 3.4414 60 60 60
-0.9563 -4.1932 -0.1200 60 60 60
0.4675 -0.0015 1.5969 60 60 60
-1.8649 -4.0953 -0.0970 60 60 60
-0.8840 4.6407 -0.0004 60 60 60
-0.0795 0.1272 1.4876 60 60 60
-0.9454 -3.2564 -0.0623 60 60 60
-0.7341 -3.9273 -0.1015 60 60 60
1.4712 0.0576 1.5209 60 60 60
-0.3918 4.3946 0.0042 60 60 60
5.5048 7.9731 3.3758 60 60 60
-1.7505 -2.7190 -0.0470 60 60 60
0.9409 0.0005 1.8392 60 60 60
-15.7733 2.8209 -0.1532 60 60 60
5.7312 1.3365 0.0204 60 60 60
-4.7329 4.0215 -0.0393 60 60 60
-13.4241 5.7397 -0.0116 60 60 60
27.5916 -16.2526 5.6820 60 60 60
0.9463 0.0005 1.8393 60 60 60
-2.3721 -11.7346 0.5361 60 60 60
0.0964 -0.0750 1.5046 60 60 60
-3.1696 7.9098 -0.0522 60 60 60
-1.9859 -11.3407 2.4894 60 60 60
1.4627 0.2845 1.4730 60 60 60
10.0798 -5.3317 0.6561 60 60 60
2.0434 -3.2713 -0.0842 60 60 60
-15.1672 -2.7095 -0.0961 60 60 60
-4.3305 6.3423 -0.0463 60 60 60
-25.3586 18.0120 4.5993 60 60 60
7.2125 -10.4200 3.2302 60 60 60
-8.0514 0.3721 1.4167 60 60 60
4.6389 6.1588 -0.0462 60 60 60
-5.4493 -4.4448 2.8506 60 60 60
0.9598 0.0003 1.8396 60 60 60
4.5423 -4.3101 1.2637 60 60 60
-6.7082 12.0217 1.8984 60 60 60
1.3881 -0.2484 1.4927 60 60 60
4.8370 -10.8254 1.0919 60 60 60
0.9498 0.0005 1.8394 60 60 60
0.8710 0.0014 1.8375 60 60 60
-2.2710 -4.8862 -0.1382 60 60 60
-12.6378 2.3487 -0.1090 60 60 60
2.4411 -4.2060 -0.1304 60 60 60
2.4254 -3.0452 -0.0751 60 60 60
0.5184 8.2604 -0.0737 60 60 60
1.3272 0.3999 1.5222 60 60 60
0.9601 0.0003 1.8396 60 60 60
1.3256 -11.2699 3.6442 60 60 60
0.9368 0.0006 1.8391 60 60 60
4.4727 -4.2476 0.3357 60 60 60
6.5237 4.6974 0.0110 60 60 60
4.9789 -0.7152 -0.0089 60 60 60
-13.1046 6.3824 -0.0179 60 60 60
-1.2478 -11.2956 1.6414 60 60 60
4.5551 -10.8776 0.5695 60 60 60
-1.6347 3.6172 0.0083 60 60 60
2.9992 8.8467 0.4758 60 60 60
-2.7123 3.7061 0.0047 60 60 60
0.8994 0.0011 1.8382 60 60 60
0.9609 0.0003 1.8397 60 60 60
2.1677 6.8772 -0.0463 60 60 60
-25.2332 -6.6018 -0.1156 60 60 60
-3.5280 -5.3688 -0.1328 60 60 60
0.1293 -0.3382 1.4905 60 60 60
1.2942 -0.3960 1.4962 60 60 60
-3.9732 -8.0446 -0.1808 60 60 60
-1.7669 -5.8013 -0.0406 60 60 60
0.3657 6.0958 -0.0228 60 60 60
-4.3573 2.3320 0.0071 60 60 60
-8.4886 12.6074 1.9473 60 60 60
9.9159 8.7243 2.0279 60 60 60
-1.4065 10.2633 0.5009 60 60 60
1.3731 0.1760 1.4911 60 60 60
-1.5964 -3.6572 1.0041 60 60 60
-6.2667 -3.4704 1.2302 60 60 60
1.2913 0.5128 1.4772 60 60 60
1.0117 -0.4233 1.5712 60 60 60
0.9392 0.0006 1.8392 60 60 60
1.3687 3.7808 0.0097 60 60 60
0.9504 0.0004 1.8394 60 60 60
-0.1387 4.1431 0.0034 60 60 60
0.9484 0.0005 1.8394 60 60 60
-0.6638 -6.7126 -0.0817 60 60 60
0.3889 -0.2970 1.5194 60 60 60
0.2742 3.9078 0.0119 60 60 60
1.4810 -0.0919 1.4792 60 60 60
5.5833 -10.6292 2.1381 60 60 60
26.7024 -18.9516 5.8421 60 60 60
0.9309 0.4456 1.5791 60 60 60
-3.7564 -8.1031 -0.1771 60 60 60
-1.6073 10.3159 0.4966 60 60 60
1.3915 -0.2076 1.4994 60 60 60
4.8038 3.4176 0.0170 60 60 60
-4.5257 -2.9906 0.6174 60 60 60
-5.9645 -1.5414 -0.0300 60 60 60
-3.0793 -4.9933 -0.1377 60 60 60
-3.3317 -4.6570 1.2868 60 60 60
0.9547 0.0004 1.8395 60 60 60
3.0168 -6.1497 -0.1506 60 60 60
5.7545 7.8733 2.2783 60 60 60
-1.0247 10.2754 1.7200 60 60 60
-2.3512 3.1072 0.0061 60 60 60
5.9389 7.8771 3.1579 60 60 60
-9.5379 12.9696 5.1238 60 60 60
-3.6081 -3.0044 -0.0608 60 60 60
4.5970 8.3701 2.7554 60 60 60
5.0735 8.1995 1.2310 60 60 60
6.1668 -2.2129 -0.0756 60 60 60
-4.0914 11.1993 2.9690 60 60 60
16.6041 -18.1299 -0.0512 60 60 60
7.8385 8.1724 3.5524 60 60 60
-6.8195 0.6092 0.1789 60 60 60
-10.6018 13.1684 1.1875 60 60 60
2.5801 6.6841 -0.0412 60 60 60
0.8991 0.0012 1.8382 60 60 60
14.4741 8.8156 2.3656 60 60 60
1.9415 -3.5555 -0.0948 60 60 60
0.2396 0.3136 1.5088 60 60 60
0.9124 0.0010 1.8385 60 60 60
-23.2912 17.3855 7.9531 60 60 60
0.3975 -8.3085 -0.1339 60 60 60
13.6565 8.7681 3.4422 60 60 60
-4.6949 -11.5768 0.8664 60 60 60
-11.4307 -16.5129 0.4408 60 60 60
1.4831 -0.2828 1.4712 60 60 60
4.8800 3.9570 0.0278 60 60 60
5.8919 -10.5952 2.9500 60 60 60
4.9014 0.8897 0.0124 60 60 60
-3.1311 10.8779 2.8771 60 60 60
1.3241 -0.4612 1.4762 60 60 60
-6.8959 12.0047 0.2261 60 60 60
3.9530 8.5662 2.1389 60 60 60
4.9175 -1.3390 -0.0424 60 60 60
0.1137 -0.0447 1.5989 60 60 60
0.4538 -0.3726 1.5058 60 60 60
5.3546 -10.6611 1.3380 60 60 60
1.9881 9.2315 3.3338 60 60 60
2.0218 -8.5203 -0.0665 60 60 60
0.0332 -0.2912 1.4876 60 60 60
0.9392 0.0006 1.8392 60 60 60
6.0795 -10.5879 1.8474 60 60 60
12.0848 8.5335 0.3520 60 60 60
-0.2399 -8.3686 -0.1324 60 60 60
5.0707 1.2684 0.0227 60 60 60
0.2436 -0.1849 1.5144 60 60 60
1.9765 -4.4248 0.3497 60 60 60
-3.2725 5.9080 -0.0185 60 60 60
1.5253 4.2640 0.0065 60 60 60
2.6100 -0.4500 0.9966 60 60 60
0.4521 -0.3831 1.5199 60 60 60
0.9460 0.0005 1.8393 60 60 60
1.5133 -0.2032 1.4690 60 60 60
9.9226 8.5288 2.0211 60 60 60
0.8745 0.0013 1.8376 60 60 60
1.3980 0.0296 1.5127 60 60 60
1.4379 0.3433 1.4706 60 60 60
2.1323 9.1498 1.3670 60 60 60
0.9512 0.0005 1.8394 60 60 60
0.9547 0.0004 1.8395 60 60 60
-9.1483 7.9299 -0.0790 60 60 60
-1.7399 -3.3788 -0.0637 60 60 60
0.9327 0.0007 1.8391 60 60 60
-5.4817 2.6191 -0.0004 60 60 60
0.8726 0.0013 1.8375 60 60 60
1.8682 -4.4415 0.2390 60 60 60
-4.6120 -11.5746 0.8661 60 60 60
0.9324 0.0007 1.8390 60 60 60
1.5493 0.2906 1.4497 60 60 60
-3.7974 -4.5465 1.1249 60 60 60
-1.3647 3.4371 0.0135 60 60 60
2.3757 -3.5885 -0.0946 60 60 60
0.9492 0.0005 1.8394 60 60 60
-1.2892 -5.5790 -0.0950 60 60 60
5.0965 8.2222 3.3998 60 60 60
0.9466 0.0005 1.8393 60 60 60
-1.7227 10.4940 1.4904 60 60 60
0.8991 0.0011 1.8382 60 60 60
1.3702 -0.2223 1.4915 60 60 60
0.9463 0.0005 1.8393 60 60 60
2.1985 7.7020 -0.0649 60 60 60
0.3901 0.2313 1.5291 60 60 60
-6.6666 -0.3481 0.9437 60 60 60
5.3505 8.1291 3.3947 60 60 60
2.3878 4.2017 0.0179 60 60 60
7.3610 -10.3947 3.2313 60 60 60
4.5740 7.0063 -0.0128 60 60 60
9.9232 8.3412 0.2862 60 60 60
1.1781 -11.2122 3.1099 60 60 60
0.9579 0.0004 1.8396 60 60 60
1.4705 0.0760 1.4834 60 60 60
-5.6975 -11.6996 3.6904 60 60 60
1.7362 5.2405 0.0069 60 60 60
7.0317 5.5467 -0.0083 60 60 60
-4.0423 11.0715 0.1117 60 60 60
4.9644 -0.7869 -0.0077 60 60 60
0.8280 -11.2117 2.3369 60 60 60
-7.6933 -11.8258 4.6217 60 60 60
3.1622 8.8142 1.5387 60 60 60
0.9118 0.0010 1.8385 60 60 60
0.7417 -5.4022 -0.1382 60 60 60
1.4719 -0.3117 1.4709 60 60 60
0.2170 -0.2967 1.5077 60 60 60
1.7316 9.2736 0.7279 60 60 60
4.5845 -13.7804 0.6346 60 60 60
0.1353 3.9018 0.0097 60 60 60
2.1309 3.0627 0.0041 60 60 60
-22.2987 16.9911 5.6647 60 60 60
1.6531 7.0229 -0.0382 60 60 60
3.3867 8.5698 2.7846 60 60 60
1.5659 0.0368 1.5316 60 60 60
0.5321 4.4510 0.0091 60 60 60
0.2121 -4.3983 1.0200 60 60 60
0.2683 3.1045 0.0051 60 60 60
0.9604 0.0003 1.8396 60 60 60
5.5074 7.9145 2.9293 60 60 60
1.4025 0.3989 1.5296 60 60 60
-8.7447 12.6989 2.6976 60 60 60
9.9037 9.1863 1.1432 60 60 60
2.8110 3.0671 0.0121 60 60 60
0.1197 -0.2839 1.4953 60 60 60
-76.9402 22.8742 5.4974 60 60 60
-1.3615 4.9247 -0.0083 60 60 60
0.8783 0.0013 1.8377 60 60 60
4.3640 -2.1626 -0.0686 60 60 60
-2.1283 -3.4005 0.6677 60 60 60
2.7999 8.9396 1.3401 60 60 60
-8.5952 -0.1007 1.3905 60 60 60
-5.1707 -2.8961 0.1922 60 60 60
0.4349 -6.8771 -0.1361 60 60 60
-9.6013 13.0589 1.1919 60 60 60
1.3015 -8.1459 -0.1373 60 60 60
8.1443 8.1978 2.8014 60 60 60
0.8712 0.0014 1.8375 60 60 60
3.3793 8.7631 1.7405 60 60 60
-10.5970 1.9227 -0.0926 60 60 60
0.9401 0.0005 1.8392 60 60 60
5.0241 -10.7634 3.2392 60 60 60
-5.6256 -4.3373 2.4975 60 60 60
6.1123 7.8719 1.8336 60 60 60
-1.5408 3.0449 0.0108 60 60 60
-0.2597 4.1169 0.0064 60 60 60
1.4667 0.0360 1.5246 60 60 60
0.3623 -0.1744 1.5321 60 60 60
-7.0134 12.0325 0.2193 60 60 60
0.9547 0.0004 1.8395 60 60 60
-1.1914 -3.4171 -0.0725 60 60 60
-1.9780 10.5081 2.7728 60 60 60
-8.5639 6.8325 0.6574 60 60 60
-3.7429 3.3104 -0.0022 60 60 60
2.5300 9.0267 1.9932 60 60 60
-0.8975 10.1502 2.4392 60 60 60
-9.6364 -12.0733 3.7958 60 60 60
-36.6963 3.9589 0.0623 60 60 60
1.2996 -0.3924 1.4949 60 60 60
-0.5226 6.7001 -0.0347 60 60 60
-2.6832 -3.1609 0.7481 60 60 60
-18.5757 -10.4330 3.2244 60 60 60
-7.4618 -2.4396 -0.0503 60 60 60
3.3781 -2.7726 -0.0747 60 60 60
2.8561 -2.9726 -0.0738 60 60 60
0.8693 0.0014 1.8374 60 60 60
0.8723 0.0014 1.8375 60 60 60
6.9292 7.9612 2.7453 60 60 60
3.4751 -4.3249 0.6318 60 60 60
1.7152 -4.5094 0.9239 60 60 60
5.9011 -1.4388 -0.0511 60 60 60
-7.9430 4.3130 -0.0624 60 60 60
0.9474 0.0005 1.8394 60 60 60
-1.7962 5.2246 -0.0016 60 60 60
5.9467 5.7222 -0.0229 60 60 60
0.4668 9.5827 0.7715 60 60 60
-3.5273 -7.1147 -0.1631 60 60 60
6.1460 3.9423 0.0266 60 60 60
1.3256 -3.3409 -0.0927 60 60 60
0.8991 0.0012 1.8382 60 60 60
0.9533 0.0004 1.8395 60 60 60
0.8545 0.0015 1.8371 60 60 60
0.4739 0.0337 1.6125 60 60 60
5.4735 0.9241 0.0159 60 60 60
4.5860 3.0868 0.0180 60 60 60
5.8872 -3.1836 -0.1212 60 60 60
-12.2798 17.2317 4.5389 60 60 60
0.8923 -4.5261 -0.0673 60 60 60
5.1722 0.8142 0.0206 60 60 60
13.0807 -11.9655 -0.3529 60 60 60
1.0538 -4.6092 1.7130 60 60 60
4.6695 8.3455 3.1858 60 60 60
-6.2600 7.9150 -0.0696 60 60 60
-6.0788 0.7501 -0.0140 60 60 60
-1.9466 -2.8565 -0.0449 60 60 60
2.3998 9.0726 2.4299 60 60 60
-4.9514 -4.5087 2.4448 60 60 60
-2.1809 10.5718 3.0495 60 60 60
-1.6410 -11.2931 4.1143 60 60 60
1.7065 4.5099 0.0088 60 60 60
0.9398 0.0006 1.8392 60 60 60
-1.3450 -3.7051 0.4735 60 60 60
3.4387 -4.2969 0.0073 60 60 60
-4.2843 3.4780 -0.0109 60 60 60
4.5886 -12.1288 2.8205 60 60 60
0.1140 -0.2964 1.4914 60 60 60
0.4049 0.3888 1.5114 60 60 60
0.9487 0.0005 1.8394 60 60 60
0.8696 0.0014 1.8374 60 60 60
0.9436 0.0005 1.8393 60 60 60
-1.6329 9.7720 0.0869 60 60 60
1.3683 9.2141 2.9135 60 60 60
-1.9349 -35.2578 6.0196 60 60 60
-3.9603 -11.4616 4.3903 60 60 60
-0.3215 3.1577 0.0097 60 60 60
2.6008 0.3725 1.0060 60 60 60
-5.3420 -4.3378 0.6858 60 60 60
-3.4762 4.2937 -0.0095 60 60 60
0.9474 0.0005 1.8394 60 60 60
0.6647 0.5091 1.5075 60 60 60
5.3714 -4.2626 -0.1718 60 60 60
-4.8764 2.4458 0.0046 60 60 60
0.2018 0.1137 1.5216 60 60 60
5.7233 1.3649 0.0208 60 60 60
0.9550 0.0004 1.8395 60 60 60
-5.3183 -4.3152 0.3270 60 60 60
3.2267 4.0244 0.0220 60 60 60
0.9295 0.0007 1.8390 60 60 60
-2.9911 6.9528 -0.0410 60 60 60
-9.0115 1.0138 -0.0507 60 60 60
1.4625 -0.1982 1.4782 60 60 60
0.7068 6.6278 -0.0290 60 60 60
-0.9223 -3.2588 -0.0587 60 60 60
0.9449 0.0005 1.8393 60 60 60
2.3021 4.6034 0.0147 60 60 60
-1.5354 -3.1886 -0.0568 60 60 60
-19.0030 15.9531 7.0404 60 60 60
3.1844 -4.3974 0.9040 60 60 60
0.6376 -3.8681 -0.1081 60 60 60
1.2621 -0.4378 1.4938 60 60 60
-0.7271 3.2233 0.0115 60 60 60
-1.1490 10.2414 2.7018 60 60 60
-3.6038 4.9649 -0.0225 60 60 60
0.3320 0.2512 1.5177 60 60 60
-1.7475 -5.6636 -0.1600 60 60 60
-4.7407 2.7412 -0.0007 60 60 60
0.8859 0.0012 1.8379 60 60 60
-3.4338 -3.2617 -0.0726 60 60 60
7.8442 -3.7139 -0.1850 60 60 60
0.3727 0.2040 1.5269 60 60 60
-1.0094 -3.9085 1.0974 60 60 60
5.7719 3.5380 0.0189 60 60 60
2.3630 3.3660 0.0134 60 60 60
-6.8646 -0.6434 -0.0258 60 60 60
7.9664 -10.3529 1.4874 60 60 60
26.4866 -22.7948 2.2034 60 60 60
0.8834 0.0012 1.8378 60 60 60
-0.8451 5.0650 -0.0096 60 60 60
0.6942 -3.6171 -0.0903 60 60 60
1.3826 -0.4145 1.5239 60 60 60
27.6575 -17.4033 3.5380 60 60 60
0.6566 5.1513 -0.0063 60 60 60
5.4194 -4.2077 -0.1733 60 60 60
0.1425 -4.4215 -0.1340 60 60 60
-12.8791 6.7644 -0.0206 60 60 60
0.9563 0.0004 1.8396 60 60 60
1.3696 0.2450 1.4943 60 60 60
-6.0387 -4.3348 3.1150 60 60 60
-1.1961 4.5611 -0.0046 60 60 60
-10.7523 13.2403 2.0087 60 60 60
0.9449 0.0006 1.8393 60 60 60
-1.5841 3.6340 0.0125 60 60 60
-3.3387 -5.3232 -0.0937 60 60 60
3.3191 -4.0000 -0.1298 60 60 60
-11.8846 13.8015 1.1555 60 60 60
5.0386 2.2080 0.0321 60 60 60
-12.7692 12.1885 -0.0630 60 60 60
1.4577 0.0529 1.5284 60 60 60
-1.2621 -3.0756 -0.0537 60 60 60
3.9776 5.7547 -0.0182 60 60 60
-0.4074 -3.0229 -0.0515 60 60 60
0.0545 -11.1967 0.5365 60 60 60
-2.9217 10.5508 0.7391 60 60 60
0.6884 3.9117 0.0119 60 60 60
2.9308 -4.3245 -0.1498 60 60 60
-0.9664 -3.5293 -0.0778 60 60 60
1.3914 -0.2319 1.4945 60 60 60
0.9422 0.0006 1.8393 60 60 60
7.5943 -10.3763 2.9460 60 60 60
0.9596 0.0003 1.8396 60 60 60
-20.0126 -3.8937 0.8096 60 60 60
0.9555 0.0004 1.8395 60 60 60
0.3430 9.6449 3.4899 60 60 60
1.8142 0.3001 1.3454 60 60 60
0.8948 0.0011 1.8381 60 60 60
0.9127 0.0010 1.8385 60 60 60
5.7268 -10.6176 2.1337 60 60 60
-0.0914 -11.3172 2.3860 60 60 60
0.9501 0.0004 1.8394 60 60 60
0.9392 0.0006 1.8392 60 60 60
-1.2041 10.3290 0.9867 60 60 60
-12.6406 2.1894 -0.1049 60 60 60
-9.8688 -0.6160 1.0752 60 60 60
0.7291 4.7624 0.0055 60 60 60
0.2974 3.9078 0.0126 60 60 60
3.1847 8.8063 1.9612 60 60 60
3.4156 3.1142 0.0223 60 60 60
8.2019 9.2696 0.4137 60 60 60
1.2162 -0.4524 1.4886 60 60 60
8.0547 -4.1534 -0.0769 60 60 60
-7.1291 12.0875 0.5534 60 60 60
-80.9608 13.4556 -0.1438 60 60 60
-4.2864 6.3632 -0.0452 60 60 60
0.8177 4.4284 0.0114 60 60 60
-2.4758 3.8910 0.0032 60 60 60
0.9222 0.0008 1.8388 60 60 60
1.6187 5.2953 0.0008 60 60 60
-3.4135 -5.4251 0.0436 60 60 60
0.9455 0.0005 1.8393 60 60 60
-2.1116 -3.3216 0.1080 60 60 60
5.3352 -4.3289 -0.1758 60 60 60
-10.2356 -1.9620 -0.0461 60 60 60
7.4172 -10.4873 0.3559 60 60 60
3.6180 8.6650 0.6648 60 60 60
-3.3793 -2.6101 -0.0473 60 60 60
2.2125 9.1198 0.9331 60 60 60
0.2587 -0.2442 1.5125 60 60 60
-14.9960 8.2696 0.0838 60 60 60
0.9604 0.0003 1.8396 60 60 60
-83.6778 -50.4109 7.8901 60 60 60
6.4823 4.7744 0.0093 60 60 60
0.9458 0.0005 1.8393 60 60 60
0.9571 0.0003 1.8396 60 60 60
0.9368 0.0006 1.8391 60 60 60
1.3532 -0.2805 1.5042 60 60 60
-10.3050 3.8015 -0.1381 60 60 60
5.3582 5.2565 -0.0099 60 60 60
-4.0488 11.1711 2.1050 60 60 60
2.5540 9.0230 2.4212 60 60 60
1.4717 -0.3160 1.4700 60 60 60
-2.8985 3.5527 0.0033 60 60 60
4.6022 -1.5078 -0.0457 60 60 60
-4.3329 -11.5149 3.5351 60 60 60
-3.5286 10.9611 0.4175 60 60 60
0.5639 -3.2000 -0.0632 60 60 60
4.0646 8.5171 1.4970 60 60 60
5.9221 -10.0658 0.2635 60 60 60
1.7747 -10.9491 0.2239 60 60 60
6.9154 -4.0352 -0.1863 60 60 60
-5.2491 9.9107 -0.0405 60 60 60
6.5266 -4.3585 1.5684 60 60 60
4.1026 -8.1513 0.2256 60 60 60
0.9395 0.0006 1.8392 60 60 60
-5.1098 -2.4518 -0.0686 60 60 60
0.4903 9.5794 2.1145 60 60 60
6.1584 1.1864 0.0215 60 60 60
12.6142 6.2299 -5.9222 60 60 60
-5.1908 9.9441 -0.0427 60 60 60
-6.4591 12.0589 1.5578 60 60 60
0.8794 0.0013 1.8377 60 60 60
0.9533 0.0005 1.8395 60 60 60
-2.5636 10.7084 3.0906 60 60 60
2.9299 -3.2012 -0.0833 60 60 60
1.3419 0.3881 1.5199 60 60 60
0.9615 0.0003 1.8397 60 60 60
0.0396 0.2707 1.4898 60 60 60
0.8161 -4.5499 0.7512 60 60 60
10.5800 8.4212 0.5079 60 60 60
-10.0832 -12.1248 3.0792 60 60 60
-0.1616 -6.3304 -0.1315 60 60 60
-0.5798 -6.3289 -0.1360 60 60 60
-0.0957 -8.9318 0.1671 60 60 60
1.9402 2.9550 0.0088 60 60 60
-13.5407 -7.3834 -0.1723 60 60 60
0.9560 0.0004 1.8396 60 60 60
-1.2980 5.9427 -0.0138 60 60 60
7.7234 8.1520 3.2859 60 60 60
4.7822 -14.0720 1.6243 60 60 60
1.1611 -0.5086 1.4996 60 60 60
5.9886 7.8423 1.1813 60 60 60
3.5534 4.1682 0.0301 60 60 60
-0.8621 3.1646 0.0119 60 60 60
2.9893 -11.0291 3.2914 60 60 60
-1.3073 10.2714 2.2209 60 60 60
-6.3019 -11.6936 4.7447 60 60 60
0.9089 0.0010 1.8385 60 60 60
1.0445 7.2208 -0.0486 60 60 60
0.9407 -4.6228 1.5017 60 60 60
-9.0927 -2.1793 0.3726 60 60 60
-3.8390 10.8542 0.7095 60 60 60
-3.4024 -5.0754 1.2468 60 60 60
-1.7811 -11.3822 0.5668 60 60 60
-4.8970 4.9532 -0.0568 60 60 60
-6.3216 -4.2273 3.3511 60 60 60
-8.8198 2.0863 -0.0516 60 60 60
-5.1961 14.1727 3.9814 60 60 60
7.4408 -10.3732 3.5204 60 60 60
9.3660 8.3313 2.8551 60 60 60
0.9401 0.0005 1.8392 60 60 60
4.8008 -14.1032 1.9634 60 60 60
4.7445 2.1445 0.0257 60 60 60
2.7755 3.0881 0.0146 60 60 60
-0.4115 -3.2382 -0.0630 60 60 60
0.2564 -0.2758 1.5062 60 60 60
1.3167 -0.3478 1.4848 60 60 60
6.6947 -10.4787 0.9858 60 60 60
0.9414 0.0005 1.8392 60 60 60
4.2866 8.4684 1.6984 60 60 60
0.9181 0.0008 1.8387 60 60 60
0.9615 0.0003 1.8397 60 60 60
4.6520 3.5685 0.0284 60 60 60
2.9103 8.9235 3.2664 60 60 60
0.8956 0.0011 1.8381 60 60 60
0.1163 -0.2543 1.4980 60 60 60
1.8800 -0.2404 1.3248 60 60 60
-3.1197 5.9820 -0.0182 60 60 60
-4.2162 -9.6796 -0.0108 60 60 60
1.1906 -0.5151 1.4864 60 60 60
2.8274 3.6080 0.0208 60 60 60
-1.5743 -3.6698 1.0034 60 60 60
-11.1124 13.3778 4.9858 60 60 60
-0.1706 3.2021 0.0078 60 60 60
0.8346 7.2726 -0.0509 60 60 60
2.4579 9.0617 1.5693 60 60 60
0.9528 0.0004 1.8395 60 60 60
2.2899 -5.1066 -0.1767 60 60 60
-4.1146 4.5930 -0.0295 60 60 60
1.3655 9.4332 3.6155 60 60 60
-1.4714 -11.3063 1.1104 60 60 60
-6.8076 9.3722 -0.0583 60 60 60
0.9156 0.0009 1.8386 60 60 60
4.3978 -4.2533 0.4862 60 60 60
0.9669 0.0002 1.8398 60 60 60
1.2974 0.3460 1.5004 60 60 60
1.3894 -0.2135 1.4995 60 60 60
1.5339 0.0869 1.5055 60 60 60
-6.8007 -0.8620 -0.0173 60 60 60
9.9159 8.5330 0.2752 60 60 60
-5.3953 2.8419 -0.0066 60 60 60
0.8688 0.0014 1.8374 60 60 60
0.8775 0.0013 1.8376 60 60 60
1.4533 -0.2213 1.4795 60 60 60
-1.6150 3.9727 0.0103 60 60 60
-4.3561 -11.5461 0.8669 60 60 60
-7.0953 4.0106 -0.1116 60 60 60
4.4247 -4.3591 1.6652 60 60 60
-1.8958 4.2535 0.0003 60 60 60
-5.9962 -11.7273 3.4007 60 60 60
1.5232 -11.2189 3.6281 60 60 60
0.4323 0.3087 1.5277 60 60 60
0.9520 0.0005 1.8395 60 60 60
-0.3004 -11.3342 2.1301 60 60 60
-6.5777 1.8737 -0.0096 60 60 60
5.8646 7.5589 0.1271 60 60 60
6.9888 -10.4320 0.9674 60 60 60
-3.2185 -4.8479 0.9717 60 60 60
-4.0758 3.7266 -0.0114 60 60 60
4.1394 8.4687 0.2075 60 60 60
1.3408 0.3180 1.5061 60 60 60
-4.2433 -4.2321 0.8118 60 60 60
-1.1008 -4.1282 -0.1132 60 60 60
-6.8633 -11.8863 0.1718 60 60 60
-4.0163 8.9183 -0.0672 60 60 60
-9.0151 -2.2707 0.6222 60 60 60
4.5430 -10.9194 1.9108 60 60 60
4.1206 8.5002 0.6398 60 60 60
-2.4458 3.9017 0.0062 60 60 60
0.1252 -0.2768 1.4983 60 60 60
4.8114 4.0293 0.0305 60 60 60
-0.6492 3.2551 0.0109 60 60 60
0.9471 0.0005 1.8394 60 60 60
-6.5898 0.4198 0.4143 60 60 60
-22.7778 8.2585 0.0327 60 60 60
2.4325 -3.2892 -0.0846 60 60 60
-8.4923 -11.8909 5.1175 60 60 60
-7.2499 -0.0438 1.0698 60 60 60
-6.5830 -11.7834 3.7935 60 60 60
-5.0407 2.0436 0.0083 60 60 60
1.9078 9.2147 2.0242 60 60 60
0.5177 -0.4367 1.5055 60 60 60
6.4886 7.9065 2.0493 60 60 60
0.2911 -0.3367 1.5079 60 60 60
-16.2922 15.0481 4.2880 60 60 60
-2.8238 3.0973 0.0073 60 60 60
14.9912 -9.3871 3.5386 60 60 60
-6.7015 12.0435 2.2296 60 60 60
-0.1596 -11.3448 2.3907 60 60 60
-7.4108 2.5497 -0.0352 60 60 60
1.3589 0.4796 1.5230 60 60 60
-11.2935 13.4467 5.4563 60 60 60
-1.0566 -5.4273 -0.1799 60 60 60
-5.5416 -11.6187 4.3002 60 60 60
8.2441 7.3187 0.0455 60 60 60
0.9425 0.0006 1.8393 60 60 60
-6.4609 5.9415 -0.0377 60 60 60
-2.4852 -2.8981 0.0187 60 60 60
0.1675 0.4916 1.4682 60 60 60
3.1254 -11.0124 3.5526 60 60 60
-3.2465 10.6622 0.7288 60 60 60
4.9331 -1.2389 -0.0371 60 60 60
0.1118 -0.2150 1.5008 60 60 60
6.0386 4.1525 0.0218 60 60 60
-5.4117 0.8977 -0.0077 60 60 60
0.4449 0.4530 1.5042 60 60 60
-4.4976 4.2432 -0.0327 60 60 60
6.7305 -10.4521 2.6595 60 60 60
1.2722 0.3478 1.4945 60 60 60
-3.4979 9.8040 0.0507 60 60 60
-23.1006 7.7567 0.0291 60 60 60
-2.6482 5.4799 -0.0117 60 60 60
0.9981 0.4166 1.5677 60 60 60
-3.1123 2.7865 0.0033 60 60 60
1.7632 -4.5178 -0.1446 60 60 60
11.3786 7.1726 0.1777 60 60 60
4.2304 3.0401 0.0161 60 60 60
5.6756 7.8894 1.8485 60 60 60
-8.1256 12.4555 0.4989 60 60 60
1.8331 4.1464 0.0131 60 60 60
2.7611 -11.7955 0.6068 60 60 60
0.9523 0.0004 1.8395 60 60 60
-3.7335 4.8769 -0.0240 60 60 60
-4.8890 10.0971 -0.0520 60 60 60
7.2622 -4.3171 0.0711 60 60 60
0.9971 -4.5826 1.6088 60 60 60
11.6429 8.5596 2.9678 60 60 60
4.7856 4.0497 0.0328 60 60 60
0.1156 0.1466 1.5064 60 60 60
-8.5772 4.7649 0.0430 60 60 60
-1.5063 3.3495 0.0162 60 60 60
5.7912 1.0764 0.0183 60 60 60
0.9688 0.0003 1.8398 60 60 60
0.9479 0.0005 1.8394 60 60 60
0.9449 0.0005 1.8393 60 60 60
0.9167 0.0009 1.8387 60 60 60
0.5266 -3.6158 -0.0872 60 60 60
-0.1140 -0.1546 1.4756 60 60 60
0.9569 0.0003 1.8396 60 60 60
-6.9060 5.3884 -0.0245 60 60 60
0.9474 0.0005 1.8394 60 60 60
-4.9040 -11.5955 2.3779 60 60 60
9.8168 7.5225 0.0705 60 60 60
-3.7791 11.0800 2.0923 60 60 60
-1.9740 -11.3352 2.7616 60 60 60
-5.0326 -4.8295 1.5642 60 60 60
1.3335 0.3256 1.5074 60 60 60
9.0999 6.2273 0.0129 60 60 60
0.9740 0.0001 1.8399 60 60 60
0.0258 -0.2993 1.4840 60 60 60
0.9560 0.0004 1.8396 60 60 60
-2.0892 10.4301 0.4863 60 60 60
2.6237 8.9981 0.9185 60 60 60
-3.2352 10.9181 2.6137 60 60 60
9.8764 9.1832 2.3436 60 60 60
0.8745 0.0014 1.8376 60 60 60
-7.1376 -11.8348 2.8478 60 60 60
-0.9488 7.4397 -0.0557 60 60 60
-4.8956 -4.5195 2.4404 60 60 60
3.8667 8.6152 3.2159 60 60 60
-0.1887 -7.6215 -0.1469 60 60 60
0.8761 0.0013 1.8376 60 60 60
-18.4884 -11.1057 2.1833 60 60 60
-6.8251 0.9211 -0.0206 60 60 60
0.9314 0.0007 1.8390 60 60 60
-1.7161 7.3434 -0.0542 60 60 60
0.9520 0.0005 1.8395 60 60 60
0.8761 0.0014 1.8376 60 60 60
-4.5029 8.6983 -0.0571 60 60 60
9.3385 9.4017 0.2835 60 60 60
4.0821 -4.2640 0.4095 60 60 60
3.4014 8.7181 0.4596 60 60 60
1.5402 -0.0894 1.4650 60 60 60
6.8078 7.9368 2.2753 60 60 60
-10.0661 -12.0470 5.4075 60 60 60
0.2402 0.0421 1.5220 60 60 60
-1.6290 -3.7362 1.8413 60 60 60
-6.6407 -1.1956 0.3812 60 60 60
-1.1144 3.0506 0.0061 60 60 60
13.5280 8.7329 2.3507 60 60 60
-5.5112 9.8169 -0.0402 60 60 60
-76.6250 23.7207 3.5999 60 60 60
8.6343 6.8578 0.0306 60 60 60
-7.7648 11.0810 -0.0345 60 60 60
-25.0441 4.5578 -0.0208 60 60 60
3.8667 -4.0012 -0.1441 60 60 60
0.2436 -4.4396 -0.1403 60 60 60
0.9460 0.0005 1.8393 60 60 60
-17.1372 6.6373 -0.0043 60 60 60
2.8879 -2.9460 -0.0734 60 60 60
0.8777 0.0013 1.8376 60 60 60
-0.9171 8.3400 -0.0703 60 60 60
-6.2417 2.8360 -0.0160 60 60 60
13.8430 8.7503 1.9915 60 60 60
0.9371 0.0006 1.8391 60 60 60
2.9973 7.6578 0.0597 60 60 60
-3.9489 -11.4778 2.6151 60 60 60
-20.6262 16.6284 2.8843 60 60 60
-0.2984 9.9823 0.9898 60 60 60
3.5902 8.6727 1.0936 60 60 60
6.6410 -7.6695 0.4307 60 60 60
0.9297 0.0008 1.8390 60 60 60
0.6715 0.5048 1.5112 60 60 60
7.7420 -10.3817 2.0776 60 60 60
0.3150 0.3348 1.5120 60 60 60
3.7027 8.6221 0.4457 60 60 60
0.1759 3.0934 0.0042 60 60 60
-23.4116 17.3750 5.8229 60 60 60
-0.4506 -3.7129 -0.0851 60 60 60
5.6343 4.8463 0.0034 60 60 60
-0.6657 -3.9540 -0.1047 60 60 60
-25.4792 -17.6579 3.0071 60 60 60
-3.2813 -3.3960 0.6169 60 60 60
10.1528 8.4131 2.5976 60 60 60
8.9110 -10.2647 1.4442 60 60 60
-5.0974 3.6367 -0.0518 60 60 60
5.0444 -3.8186 -0.1447 60 60 60
0.4796 -0.4419 1.5085 60 60 60
2.5421 7.5762 -0.0684 60 60 60
-5.2597 11.4749 3.6952 60 60 60
7.6636 -10.3923 2.0795 60 60 60
-0.1106 -0.1664 1.4761 60 60 60
9.9360 8.8541 0.2529 60 60 60
-0.9057 -3.0182 -0.0483 60 60 60
0.8696 0.0014 1.8374 60 60 60
1.2910 0.5316 1.4700 60 60 60
-8.8002 12.8104 1.2025 60 60 60
1.3739 0.3429 1.5193 60 60 60
-4.6657 11.2671 3.3133 60 60 60
0.9579 0.0003 1.8396 60 60 60
0.3171 6.6748 -0.0308 60 60 60
4.5796 -4.3374 1.7903 60 60 60
14.7465 8.8636 2.7542 60 60 60
1.5168 -0.1760 1.4706 60 60 60
-3.6035 11.0196 2.0840 60 60 60
0.2772 0.4507 1.4906 60 60 60
1.3190 -0.3333 1.4888 60 60 60
0.8699 0.0014 1.8374 60 60 60
-0.9686 5.0392 -0.0102 60 60 60
3.4671 8.7105 0.6720 60 60 60
-0.1745 -4.1579 0.3162 60 60 60
-8.9545 -3.5678 0.3150 60 60 60
0.0431 0.2927 1.4882 60 60 60
-6.1587 12.1385 4.1936 60 60 60
1.5743 0.2433 1.4460 60 60 60
-6.0758 -0.6601 -0.0138 60 60 60
2.7724 7.7116 0.0718 60 60 60
-7.0388 -11.7721 4.5216 60 60 60
0.9371 0.0007 1.8391 60 60 60
0.6609 -3.8638 -0.1064 60 60 60
-7.4398 2.4542 -0.0342 60 60 60
-5.9209 11.8789 0.9131 60 60 60
-1.2949 -11.2591 4.0781 60 60 60
-0.3374 10.0525 1.4579 60 60 60
6.0983 4.0508 0.0225 60 60 60
6.3476 7.8181 2.9426 60 60 60
-10.2693 13.1929 4.8478 60 60 60
-8.6855 -1.9753 -0.0323 60 60 60
5.7294 2.5616 0.0236 60 60 60
0.9544 0.0004 1.8395 60 60 60
0.2260 -8.7772 0.3996 60 60 60
1.3603 -5.3268 -0.1488 60 60 60
-0.9790 -3.8983 0.9961 60 60 60
1.3840 -8.6623 -0.0537 60 60 60
1.4131 0.4266 1.5378 60 60 60
11.3383 8.5053 1.3759 60 60 60
-5.0165 -2.6548 -0.0716 60 60 60
1.0858 3.6268 0.0067 60 60 60
-6.5805 0.3737 0.2331 60 60 60
1.5534 -0.3806 1.4365 60 60 60
-12.0346 13.2769 0.3139 60 60 60
0.9300 0.0008 1.8390 60 60 60
6.0330 1.6804 0.0255 60 60 60
0.8765 7.2643 -0.0508 60 60 60
-8.6815 3.7488 -0.1354 60 60 60
0.9593 0.0004 1.8396 60 60 60
0.9430 0.0006 1.8393 60 60 60
0.8683 0.0014 1.8374 60 60 60
-29.5252 19.6633 6.7071 60 60 60
0.9541 0.0005 1.8395 60 60 60
3.3916 8.7418 1.1022 60 60 60
3.1119 8.8294 1.5410 60 60 60
0.9300 0.0007 1.8390 60 60 60
13.4455 -10.9671 -0.3290 60 60 60
9.8966 9.0118 2.0382 60 60 60
0.9308 0.0007 1.8390 60 60 60
1.0303 3.2430 0.0085 60 60 60
-7.7500 0.4067 1.2279 60 60 60
-3.9574 9.8851 0.0217 60 60 60
-3.7775 -9.2217 -0.1640 60 60 60
6.5000 -3.1272 -0.1307 60 60 60
0.9441 0.0006 1.8393 60 60 60
0.8753 0.0014 1.8376 60 60 60
-5.0915 -4.5019 2.2794 60 60 60
0.3534 3.2735 0.0155 60 60 60
-0.3190 7.4359 -0.0506 60 60 60
6.8662 -4.3510 1.5527 60 60 60
-4.8216 -3.0146 -0.0759 60 60 60
0.3180 0.1792 1.5246 60 60 60
-2.9712 10.8314 2.8626 60 60 60
-2.5198 9.2779 -0.0728 60 60 60
0.9522 0.0005 1.8395 60 60 60
0.1732 -0.0416 1.5764 60 60 60
5.8772 0.4006 0.0177 60 60 60
-0.5807 -2.9489 -0.0453 60 60 60
1.4359 -0.3561 1.5351 60 60 60
0.9395 0.0006 1.8392 60 60 60
2.6583 3.1856 0.0099 60 60 60
0.9165 0.0009 1.8387 60 60 60
-1.0213 5.4775 -0.0120 60 60 60
0.9601 0.0003 1.8396 60 60 60
-19.5194 15.8511 0.4188 60 60 60
5.4694 -10.6190 3.2235 60 60 60
24.6491 -25.3963 4.7402 60 60 60
-5.8636 11.3860 0.0134 60 60 60
-5.1140 -11.7041 0.2369 60 60 60
1.0037 9.4282 1.1907 60 60 60
-12.0590 13.9446 2.9259 60 60 60
10.4072 6.4457 0.0615 60 60 60
-0.1055 -4.1696 0.2014 60 60 60
0.0273 0.0826 1.5728 60 60 60
-3.3573 -11.5363 0.2770 60 60 60
-5.2394 5.8291 -0.0690 60 60 60
0.1675 0.4129 1.4858 60 60 60
0.9512 0.0005 1.8394 60 60 60
0.8588 0.0015 1.8372 60 60 60
1.1921 0.4348 1.4930 60 60 60
3.4134 -3.4837 -0.1057 60 60 60
5.1243 -2.7011 -0.0866 60 60 60
1.5106 0.1395 1.4736 60 60 60
4.4201 7.7502 0.0764 60 60 60
0.9154 0.0009 1.8386 60 60 60
0.7134 9.5145 2.1023 60 60 60
1.0145 -4.3766 -0.1326 60 60 60
-12.6313 1.8679 -0.0956 60 60 60
2.5691 0.5493 1.0007 60 60 60
0.0115 -0.4444 1.4571 60 60 60
-10.3858 -12.1613 2.7135 60 60 60
1.3020 -0.3772 1.4815 60 60 60
-5.4382 -11.6739 3.0327 60 60 60
-6.8828 12.2675 5.0014 60 60 60
0.1434 3.0732 0.0128 60 60 60
0.9541 0.0005 1.8395 60 60 60
-2.2443 -3.4292 1.4311 60 60 60
-3.7452 2.5244 0.0082 60 60 60
-24.0387 17.5704 5.1910 60 60 60
2.9334 8.8852 1.9732 60 60 60
-2.3595 -11.3668 4.1957 60 60 60
-18.9784 15.8535 1.6180 60 60 60
0.7578 6.0523 -0.0207 60 60 60
-3.7971 -4.7325 2.0439 60 60 60
0.0827 9.7351 3.0562 60 60 60
-5.3772 -3.6991 1.4382 60 60 60
0.9555 0.0004 1.8395 60 60 60
-4.0897 -4.3952 0.9658 60 60 60
4.5144 -13.8364 0.6352 60 60 60
4.4431 8.4170 2.7604 60 60 60
1.3820 -0.2104 1.4869 60 60 60
0.9509 0.0004 1.8394 60 60 60
0.9381 0.0007 1.8392 60 60 60
0.8913 0.0011 1.8380 60 60 60
0.8859 0.0012 1.8379 60 60 60
0.9449 0.0005 1.8393 60 60 60
0.8272 9.4565 0.9759 60 60 60
-6.5327 1.9990 -0.0080 60 60 60
0.1873 0.5043 1.4714 60 60 60
0.8109 3.4796 0.0088 60 60 60
10.0389 -5.2807 3.3833 60 60 60
-5.1154 14.4411 4.0036 60 60 60
-5.2211 -4.3002 0.3433 60 60 60
5.7344 7.8659 0.9820 60 60 60
-8.0362 12.6035 3.7441 60 60 60
-3.3248 10.9183 2.3438 60 60 60
0.9422 0.0005 1.8393 60 60 60
2.6198 -0.3340 1.0025 60 60 60
1.0834 3.8426 0.0100 60 60 60
-7.4316 -11.8650 3.8963 60 60 60
-0.1671 -4.2161 0.9527 60 60 60
2.4273 9.0634 1.9984 60 60 60
1.3495 0.2181 1.4952 60 60 60
1.4538 -0.2450 1.4748 60 60 60
1.7703 -4.1757 -0.1231 60 60 60
1.3812 0.1583 1.4897 60 60 60
3.6324 4.6207 0.0246 60 60 60
-4.0258 11.1536 2.3882 60 60 60
0.8785 0.0013 1.8377 60 60 60
-31.2684 -10.7626 1.7096 60 60 60
-6.7055 -1.4781 -0.0230 60 60 60
0.9487 0.0005 1.8394 60 60 60
0.8593 0.0015 1.8372 60 60 60
1.0986 0.5462 1.4877 60 60 60
2.5382 -6.8762 -0.1129 60 60 60
-7.0461 -1.2484 0.8821 60 60 60
-4.2743 5.3864 -0.0404 60 60 60
0.9691 0.0002 1.8398 60 60 60
-0.5967 -3.9775 -0.1071 60 60 60
0.9227 0.0008 1.8388 60 60 60
-0.2310 4.7552 0.0021 60 60 60
0.9259 0.0008 1.8389 60 60 60
1.4744 4.2671 0.0112 60 60 60
-3.3324 -4.1315 0.3338 60 60 60
4.7378 3.4822 0.0225 60 60 60
0.9148 0.0009 1.8386 60 60 60
-13.8713 19.2549 4.2876 60 60 60
-18.5508 -10.6948 2.1907 60 60 60
7.7878 -3.8922 -0.1903 60 60 60
6.5659 7.9152 2.0482 60 60 60
3.3988 3.4818 0.0265 60 60 60
6.6889 -4.3285 1.3925 60 60 60
1.9907 -11.0566 2.5378 60 60 60
-9.4952 16.0161 4.6182 60 60 60
7.7742 -4.5547 0.3418 60 60 60
-4.0016 -15.3605 2.0246 60 60 60
-2.7642 -3.2121 1.6583 60 60 60
1.4844 -4.2732 -0.1288 60 60 60
5.7426 7.7898 2.9203 60 60 60
1.1596 0.4641 1.4913 60 60 60
5.2159 5.4668 -0.0196 60 60 60
0.7370 9.5201 3.4474 60 60 60
-10.7821 13.2588 4.0816 60 60 60
0.9606 0.0003 1.8397 60 60 60
-4.6779 1.5643 0.0057 60 60 60
26.4161 -22.9965 2.2100 60 60 60
-2.8240 -11.4109 3.6736 60 60 60
1.9253 9.1952 0.5049 60 60 60
0.9604 0.0003 1.8396 60 60 60
4.5951 -10.7611 0.8439 60 60 60
-0.8122 5.0621 -0.0064 60 60 60
0.4630 3.4874 0.0068 60 60 60
-7.9418 12.5344 0.8550 60 60 60
5.3809 5.2213 -0.0082 60 60 60
0.1155 -0.0208 1.5996 60 60 60
-2.6001 10.6791 2.2988 60 60 60
-0.2640 3.1735 0.0100 60 60 60
1.4085 9.4060 2.4914 60 60 60
-0.9686 3.9376 0.0032 60 60 60
-6.0333 -11.6740 4.0463 60 60 60
1.4623 -0.0163 1.5282 60 60 60
6.1704 7.8757 1.6111 60 60 60
5.5471 -1.0158 -0.0203 60 60 60
-3.0758 10.8386 2.3284 60 60 60
10.1799 -5.1667 1.6454 60 60 60
0.7644 3.6814 0.0125 60 60 60
4.2261 -10.7325 0.3426 60 60 60
-4.2871 2.4825 0.0044 60 60 60
-2.5060 -3.2102 0.4132 60 60 60
5.1504 8.1824 1.6584 60 60 60
-9.0407 -11.9545 4.0946 60 60 60
-0.0991 -4.2566 0.9445 60 60 60
0.5994 -4.1275 -0.1191 60 60 60
3.3750 -14.5463 0.6542 60 60 60
-0.7631 3.4474 0.0116 60 60 60
0.9121 0.0010 1.8385 60 60 60
0.8941 4.1475 0.0107 60 60 60
-3.5950 -3.0339 -0.0637 60 60 60
1.3945 0.1386 1.4851 60 60 60
0.9335 0.0007 1.8391 60 60 60
1.2946 0.3119 1.4966 60 60 60
-5.1020 11.3628 0.9529 60 60 60
0.4335 0.3330 1.5209 60 60 60
-8.5198 10.9606 -0.0631 60 60 60
6.2107 -7.7436 0.2478 60 60 60
1.4522 3.9993 0.0119 60 60 60
0.9452 0.0005 1.8393 60 60 60
-4.0627 -14.9575 2.0285 60 60 60
1.4150 0.0892 1.4972 60 60 60
-0.4392 6.6935 -0.0319 60 60 60
4.1515 -24.9912 1.0393 60 60 60
0.8850 0.0012 1.8378 60 60 60
4.4859 3.2257 0.0184 60 60 60
1.2098 3.5991 0.0082 60 60 60
0.9723 0.0002 1.8399 60 60 60
0.9433 0.0006 1.8393 60 60 60
-2.7306 -7.3501 -0.1543 60 60 60
3.8117 -4.3199 0.1853 60 60 60
10.8632 8.4869 3.5441 60 60 60
0.2865 0.2566 1.5174 60 60 60
0.8253 4.4012 0.0095 60 60 60
0.8796 0.0013 1.8377 60 60 60
2.5363 -11.0724 3.3079 60 60 60
1.0064 -3.1938 -0.0766 60 60 60
0.9725 9.4714 3.6565 60 60 60
1.5019 -11.1657 3.0909 60 60 60
2.3249 5.4993 -0.0022 60 60 60
-0.5951 -3.1591 -0.0533 60 60 60
0.9373 0.0007 1.8392 60 60 60
-5.3898 -1.1490 -0.0196 60 60 60
0.3682 -0.2118 1.5287 60 60 60
-5.1526 -2.9836 1.7952 60 60 60
4.7820 -8.0249 0.3814 60 60 60
0.9458 0.0005 1.8393 60 60 60
2.9317 -2.8992 -0.0690 60 60 60
-3.2654 -11.4543 4.3076 60 60 60
3.7868 -3.5393 -0.1124 60 60 60
0.9493 0.0005 1.8394 60 60 60
1.2255 9.4238 0.2895 60 60 60
-6.7668 10.9360 0.0353 60 60 60
0.4750 -0.3989 1.5047 60 60 60
0.8959 0.0011 1.8381 60 60 60
-1.3986 7.3873 -0.0534 60 60 60
1.4041 0.1009 1.4846 60 60 60
6.9864 5.6379 -0.0113 60 60 60
0.9062 0.0010 1.8384 60 60 60
5.6982 -10.6450 0.7723 60 60 60
0.9620 0.0003 1.8397 60 60 60
-6.5214 -1.0466 0.5896 60 60 60
-12.7472 -12.2904 5.9274 60 60 60
-1.9315 5.7344 -0.0032 60 60 60
-3.8373 11.1082 2.6609 60 60 60
-1.1371 -11.2623 2.7055 60 60 60
-0.6774 -11.2684 0.5528 60 60 60
1.2520 0.4912 1.4809 60 60 60
1.3500 -0.4307 1.4759 60 60 60
0.9571 0.0004 1.8396 60 60 60
0.8761 0.0013 1.8376 60 60 60
-4.1061 -11.5196 0.8671 60 60 60
-8.9635 1.2399 -0.0471 60 60 60
2.7211 8.9930 3.5011 60 60 60
3.5217 8.1862 0.1050 60 60 60
0.9981 -0.4386 1.5793 60 60 60
0.8753 0.0013 1.8376 60 60 60
-14.1039 -6.4075 0.2252 60 60 60
5.6696 4.7666 0.0090 60 60 60
-2.9962 10.8351 1.2486 60 60 60
-18.9660 15.8695 2.2135 60 60 60
-14.4061 14.4803 0.1315 60 60 60
0.1430 0.0121 1.5870 60 60 60
10.0232 -5.2754 3.1298 60 60 60
-6.7114 -0.0417 0.9405 60 60 60
6.9459 -10.4392 2.0968 60 60 60
11.2177 8.5199 2.9458 60 60 60
0.9609 0.0003 1.8397 60 60 60
0.8720 0.0014 1.8375 60 60 60
0.8989 0.0011 1.8382 60 60 60
-4.3830 -11.5392 2.3476 60 60 60
3.5619 -4.3090 0.3680 60 60 60
-2.9841 4.0348 0.0002 60 60 60
4.4549 8.3970 2.1168 60 60 60
0.9512 0.0004 1.8394 60 60 60
-11.6760 7.9470 1.4028 60 60 60
4.6265 -4.3964 1.6558 60 60 60
6.4192 -10.4880 2.1110 60 60 60
-2.5249 -3.2757 0.7506 60 60 60
0.9482 0.0005 1.8394 60 60 60
4.4054 -10.8982 2.1838 60 60 60
-4.5766 -11.5633 1.7635 60 60 60
7.6381 8.1452 3.2801 60 60 60
-2.1844 5.0761 -0.0042 60 60 60
3.3378 8.5859 2.7871 60 60 60
-5.8617 11.9423 4.1342 60 60 60
2.2795 -7.0502 -0.1308 60 60 60
-3.5392 -4.6055 1.1326 60 60 60
4.4565 6.5438 -2.8029 60 60 60
-3.9960 -5.1052 -0.1451 60 60 60
0.9392 0.0006 1.8392 60 60 60
-2.1935 -5.2989 0.0592 60 60 60
-30.7171 19.7639 3.3585 60 60 60
0.6166 0.5047 1.4973 60 60 60
-4.0913 -4.2536 0.8240 60 60 60
2.8087 8.9414 2.4073 60 60 60
0.0361 -0.3477 1.4810 60 60 60
0.8723 0.0014 1.8375 60 60 60
-2.9788 9.1882 -0.0699 60 60 60
8.9925 6.3712 0.0178 60 60 60
0.9322 0.0007 1.8390 60 60 60
0.4400 -0.3412 1.5107 60 60 60
2.4322 6.7583 -0.0434 60 60 60
5.8753 -10.5977 2.4014 60 60 60
0.9490 0.0005 1.8394 60 60 60
-1.4439 4.0558 0.0096 60 60 60
25.4475 -22.8163 6.1370 60 60 60
-0.5118 3.3067 0.0095 60 60 60
0.8162 -4.2348 -0.0579 60 60 60
4.6375 3.5979 0.0261 60 60 60
0.8691 0.0014 1.8374 60 60 60
-2.4501 3.0209 0.0046 60 60 60
1.5399 -0.0933 1.4650 60 60 60
5.9417 -1.1338 -0.0416 60 60 60
-1.6157 5.8434 -0.0072 60 60 60
-7.6162 12.4389 1.5679 60 60 60
-1.9233 -3.4946 1.0059 60 60 60
-2.6791 4.2758 -0.0048 60 60 60
-10.1640 13.0947 0.7908 60 60 60
0.8994 0.0011 1.8382 60 60 60
0.7218 6.0533 -0.0196 60 60 60
-0.5098 9.9415 0.2877 60 60 60
-13.9115 4.8707 -0.0178 60 60 60
1.2773 0.3869 1.4945 60 60 60
8.5009 -10.2977 2.6556 60 60 60
1.4384 0.3894 1.5179 60 60 60
-8.3604 -0.1508 1.6177 60 60 60
0.1874 -0.1106 1.5177 60 60 60
-0.5305 -3.4272 -0.0698 60 60 60
1.8217 5.1968 0.0118 60 60 60
-25.5842 3.8670 -0.0472 60 60 60
5.5135 -10.6356 2.1402 60 60 60
-1.6449 -4.7050 -0.1361 60 60 60
0.9170 0.0009 1.8387 60 60 60
4.9509 -0.9857 -0.0184 60 60 60
-10.3113 5.4817 0.0281 60 60 60
-16.7872 14.3725 0.0406 60 60 60
0.8807 0.0013 1.8377 60 60 60
-10.3742 12.5298 0.0318 60 60 60
3.1350 3.3734 0.0210 60 60 60
3.7821 -4.6264 -0.1670 60 60 60
0.8972 0.0011 1.8382 60 60 60
0.5781 0.4557 1.5090 60 60 60
4.4086 -10.8596 0.5822 60 60 60
3.8844 8.3925 2.9697 60 60 60
0.9186 0.0008 1.8387 60 60 60
0.7059 9.5023 0.9939 60 60 60
0.9148 0.0010 1.8386 60 60 60
0.8769 0.0013 1.8376 60 60 60
1.3528 -11.1545 2.5708 60 60 60
0.0339 0.2106 1.4945 60 60 60
-3.3136 -3.2221 0.5094 60 60 60
-0.4470 3.5525 0.0109 60 60 60
0.9649 9.4124 0.5286 60 60 60
1.2402 -0.4522 1.4968 60 60 60
-1.8445 -3.9203 -0.0326 60 60 60
-6.7193 0.0021 0.9397 60 60 60
0.8162 -4.4105 -0.0149 60 60 60
0.9162 0.0009 1.8387 60 60 60
-19.0710 15.9809 6.4384 60 60 60
1.4471 0.0351 1.5178 60 60 60
-4.5140 2.0011 0.0064 60 60 60
-1.3405 10.3814 0.9857 60 60 60
3.3754 7.4758 0.0545 60 60 60
-2.3108 -3.4348 1.8692 60 60 60
-10.5386 2.1160 -0.0897 60 60 60
-4.5614 11.4565 3.9258 60 60 60
-9.2727 -12.0480 3.0143 60 60 60
0.9574 0.0003 1.8396 60 60 60
0.9487 0.0005 1.8394 60 60 60
8.1303 -10.3466 1.1862 60 60 60
-6.3969 -0.6443 0.4441 60 60 60
0.8761 0.0014 1.8376 60 60 60
-1.7233 -4.0871 -0.0688 60 60 60
-2.4029 -3.2589 0.4218 60 60 60
0.4298 -0.3319 1.5092 60 60 60
-2.9816 3.4653 0.0061 60 60 60
0.9355 0.0006 1.8391 60 60 60
2.3575 -5.2205 -0.0842 60 60 60
0.3194 3.4791 0.0068 60 60 60
-11.4016 13.2296 0.3394 60 60 60
9.0222 9.3568 0.6126 60 60 60
5.0470 -10.7749 3.7906 60 60 60
6.9433 5.7280 -0.0147 60 60 60
-6.2690 -4.2553 3.5457 60 60 60
0.8788 0.0013 1.8377 60 60 60
-2.0254 2.9944 0.0115 60 60 60
-6.8867 0.4323 -0.0242 60 60 60
-7.1323 -11.8416 3.1827 60 60 60
1.5266 -0.0225 1.5317 60 60 60
1.9377 9.2078 1.5918 60 60 60
-2.5772 3.3262 0.0090 60 60 60
0.0117 -3.8183 -0.0951 60 60 60
4.0375 -3.2229 -0.0985 60 60 60
0.4633 -0.0236 1.6089 60 60 60
0.2440 -0.4340 1.4887 60 60 60
1.3667 9.4204 2.7148 60 60 60
-1.8232 -3.5336 1.0079 60 60 60
-2.1113 -3.4849 1.5385 60 60 60
-9.0145 8.1114 -0.0864 60 60 60
-30.8081 19.7903 2.4929 60 60 60
-15.6454 14.9123 2.6498 60 60 60
-2.8182 -7.3156 -0.1522 60 60 60
3.6638 8.6650 2.3644 60 60 60
-6.5201 0.0286 0.2475 60 60 60
-10.6338 4.0873 2.9615 60 60 60
1.6674 0.5182 1.3694 60 60 60
0.9574 0.0003 1.8396 60 60 60
10.5948 8.4185 0.8079 60 60 60
-2.1333 8.2183 -0.0674 60 60 60
1.2350 0.3750 1.5013 60 60 60
-22.0898 9.7028 0.0195 60 60 60
-4.1669 5.4605 -0.0396 60 60 60
-1.8298 3.4925 0.0103 60 60 60
0.9460 0.0005 1.8393 60 60 60
9.4636 5.4603 0.0138 60 60 60
0.6095 -3.6288 -0.0949 60 60 60
3.4395 -4.4192 -0.1644 60 60 60
-7.9066 -11.8432 5.0150 60 60 60
1.7549 0.3835 1.3596 60 60 60
-2.8666 4.1464 -0.0055 60 60 60
3.5057 -4.3592 -0.1612 60 60 60
-3.0902 -11.4788 0.8585 60 60 60
0.2107 0.0233 1.5696 60 60 60
-4.4681 -4.2620 0.7858 60 60 60
-12.6400 2.0277 -0.1006 60 60 60
5.3430 8.0361 0.1302 60 60 60
-3.2454 -4.6642 1.1409 60 60 60
-1.4859 10.3532 2.7305 60 60 60
0.9061 0.0011 1.8384 60 60 60
0.7846 6.0026 -0.0202 60 60 60
-4.0602 1.9296 0.0084 60 60 60
6.3247 7.9030 2.7261 60 60 60
9.3935 9.4253 2.3555 60 60 60
0.9414 0.0005 1.8392 60 60 60
-6.2623 -2.8321 0.7134 60 60 60
0.3015 -0.3829 1.5009 60 60 60
1.2053 -0.4647 1.4871 60 60 60
0.7449 9.5012 1.6587 60 60 60
-1.8558 12.7115 3.5359 60 60 60
2.0721 -7.0685 -0.1157 60 60 60
0.1386 0.0584 1.5847 60 60 60
-12.7203 14.0624 1.5974 60 60 60
1.4118 0.4309 1.5371 60 60 60
-0.0007 -4.0941 -0.1118 60 60 60
-1.5460 4.4128 0.0015 60 60 60
9.9270 8.9484 0.2479 60 60 60
3.9564 3.7878 0.0328 60 60 60
0.9498 0.0004 1.8394 60 60 60
-3.7273 9.0025 -0.0673 60 60 60
0.9783 0.0001 1.8400 60 60 60
2.0896 -4.3984 -0.1440 60 60 60
0.9490 0.0005 1.8394 60 60 60
3.9211 -3.9281 -0.1375 60 60 60
-3.2314 2.5952 0.0112 60 60 60
0.6154 6.0780 -0.0236 60 60 60
11.9838 8.5713 2.0012 60 60 60
0.9555 0.0004 1.8395 60 60 60
0.9506 0.0004 1.8394 60 60 60
-18.9417 15.8815 2.8045 60 60 60
5.2852 -21.5193 2.6068 60 60 60
1.7534 3.4360 0.0092 60 60 60
-0.7984 4.6605 0.0001 60 60 60
4.5190 8.3728 1.4751 60 60 60
0.9010 0.0011 1.8382 60 60 60
0.9482 0.0005 1.8394 60 60 60
1.4198 -0.1021 1.4971 60 60 60
-1.0392 -3.2048 -0.0587 60 60 60
0.3820 -0.2616 1.5248 60 60 60
3.1792 4.0508 0.0249 60 60 60
-5.8761 -2.0195 -0.0463 60 60 60
-11.8515 13.5108 2.0382 60 60 60
1.7897 -0.4223 1.3427 60 60 60
8.0556 -7.2829 0.5335 60 60 60
0.3577 0.4173 1.5060 60 60 60
-0.0915 0.2907 1.4707 60 60 60
2.0398 9.1961 2.4515 60 60 60
0.9528 0.0005 1.8395 60 60 60
-1.0363 8.9233 0.0183 60 60 60
0.4387 3.6930 0.0086 60 60 60
-2.2840 -3.3474 0.9960 60 60 60
-2.0400 -3.5772 1.8580 60 60 60
5.9867 -7.7845 0.4940 60 60 60
1.8547 6.2769 -0.0225 60 60 60
0.6281 -4.6863 1.8397 60 60 60
1.4262 -0.2792 1.4827 60 60 60
0.9479 0.0005 1.8394 60 60 60
-4.3509 11.5676 4.2227 60 60 60
5.4701 7.9463 0.9990 60 60 60
5.8954 -10.1634 0.2556 60 60 60
1.7189 9.2661 0.5078 60 60 60
0.9555 0.0004 1.8395 60 60 60
-7.4255 2.5020 -0.0347 60 60 60
0.0519 -8.3870 -0.1427 60 60 60
0.2207 0.2396 1.5145 60 60 60
-8.4396 -3.1981 -0.0672 60 60 60
1.5519 -3.4731 -0.0921 60 60 60
-3.4313 -11.4402 1.4376 60 60 60
1.1544 -0.5108 1.4823 60 60 60
-9.5754 15.9368 4.6191 60 60 60
25.0402 -24.0519 6.2454 60 60 60
-6.4018 -3.4882 0.4515 60 60 60
0.8742 0.0014 1.8376 60 60 60
0.7019 4.7707 0.0031 60 60 60
-0.9673 8.3390 -0.0703 60 60 60
-5.6690 11.3837 0.3319 60 60 60
0.9851 -0.0000 1.8402 60 60 60
-26.4636 -19.8026 7.0233 60 60 60
3.5709 5.3155 0.0015 60 60 60
0.9235 0.0008 1.8389 60 60 60
2.0656 7.9602 0.0838 60 60 60
0.5097 -11.1505 0.5238 60 60 60
0.9560 0.0004 1.8396 60 60 60
0.0706 0.4070 1.4798 60 60 60
-13.7206 14.2758 2.0833 60 60 60
4.9585 3.8491 0.0289 60 60 60
-2.6344 9.2582 -0.0722 60 60 60
2.4324 -5.0474 -0.1777 60 60 60
2.3673 9.0784 0.9275 60 60 60
-1.3337 -11.2710 2.9870 60 60 60
1.1785 0.5527 1.4795 60 60 60
-0.5779 8.7598 0.0491 60 60 60
0.9623 0.0003 1.8397 60 60 60
0.8149 3.8866 0.0079 60 60 60
-3.1702 10.9633 1.5171 60 60 60
1.6334 -7.2586 -0.1290 60 60 60
5.6041 -10.6185 2.9518 60 60 60
-9.2619 12.8755 2.3499 60 60 60
0.0164 -0.4680 1.4544 60 60 60
1.3211 0.3630 1.5189 60 60 60
12.4430 8.5075 1.9953 60 60 60
0.3890 -0.2813 1.5234 60 60 60
-0.1653 3.8596 0.0105 60 60 60
-2.4049 10.5901 0.4670 60 60 60
0.4178 3.6922 0.0086 60 60 60
5.2711 1.6436 0.0260 60 60 60
-3.4007 -5.3463 0.0631 60 60 60
3.2742 -2.8541 -0.0658 60 60 60
-1.0298 -3.8114 -0.0943 60 60 60
11.8350 8.5608 2.0022 60 60 60
2.4951 3.2906 0.0115 60 60 60
0.2752 3.2721 0.0122 60 60 60
1.3593 0.4974 1.5176 60 60 60
-10.7895 -12.1120 5.5444 60 60 60
-5.1620 3.4406 -0.0357 60 60 60
-2.5460 -6.5826 -0.1442 60 60 60
6.7570 7.9435 2.5065 60 60 60
1.1114 9.4851 2.0663 60 60 60
-6.7102 -1.3888 -0.0192 60 60 60
3.2289 5.5778 -0.0078 60 60 60
4.8089 2.0017 0.0259 60 60 60
7.6997 -4.1649 -0.1998 60 60 60
-5.4646 -0.6404 -0.0159 60 60 60
3.9491 -4.4776 -0.1641 60 60 60
1.3311 -0.3677 1.4886 60 60 60
1.2635 -4.3237 -0.1285 60 60 60
2.3627 4.2091 0.0198 60 60 60
-9.4358 12.9149 1.9726 60 60 60
5.7746 1.1330 0.0204 60 60 60
-75.0467 20.8506 3.5724 60 60 60
-14.7247 14.8200 6.7082 60 60 60
5.1250 -10.7636 1.8857 60 60 60
-0.4891 10.0269 2.8853 60 60 60
26.7540 -19.0158 4.3462 60 60 60
-16.8423 7.3556 -0.0140 60 60 60
-1.5429 -2.8761 -0.0458 60 60 60
2.3948 -6.9896 -0.1268 60 60 60
4.6333 1.6981 0.0271 60 60 60
0.3168 -0.4808 1.4790 60 60 60
0.0441 -3.5748 -0.0817 60 60 60
-2.0474 -2.7616 -0.0427 60 60 60
0.9577 0.0004 1.8396 60 60 60
0.9490 0.0005 1.8394 60 60 60
5.8237 7.8575 2.4934 60 60 60
9.3477 -28.9343 4.8991 60 60 60
0.5130 0.4016 1.5096 60 60 60
11.2890 7.3826 0.1780 60 60 60
-4.8435 -1.5348 -0.0478 60 60 60
4.3377 -3.4055 -0.1165 60 60 60
-6.6103 9.4574 -0.0564 60 60 60
-0.8883 -6.3175 -0.1415 60 60 60
-26.0617 18.2012 8.5378 60 60 60
2.0578 9.1683 0.9379 60 60 60
4.5180 7.0981 -0.0217 60 60 60
1.5082 -0.0439 1.5221 60 60 60
3.9099 -8.2023 0.0257 60 60 60
0.9420 0.0005 1.8393 60 60 60
0.9322 0.0007 1.8390 60 60 60
3.4041 -11.5020 0.5937 60 60 60
5.5040 -1.5333 -0.0509 60 60 60
2.2733 9.1248 2.8722 60 60 60
0.8753 0.0013 1.8376 60 60 60
9.9115 -28.8457 6.3085 60 60 60
-12.5359 3.6315 -0.1435 60 60 60
0.0404 -4.4061 -0.1300 60 60 60
0.9390 0.0006 1.8392 60 60 60
-0.4591 -7.6217 -0.1450 60 60 60
-1.6998 -3.0631 -0.0507 60 60 60
1.4246 -0.0930 1.4767 60 60 60
-1.3306 2.9162 0.0080 60 60 60
-11.8918 13.3978 2.0409 60 60 60
1.7917 3.4173 0.0110 60 60 60
-12.4920 -12.2972 4.1300 60 60 60
1.4480 0.0250 1.5178 60 60 60
-5.1887 -2.9472 1.0013 60 60 60
1.2861 -0.4941 1.4789 60 60 60
0.9430 0.0005 1.8393 60 60 60
6.6094 7.9228 0.4431 60 60 60
6.1170 4.0166 0.0230 60 60 60
-1.0337 -4.5170 -0.1288 60 60 60
0.8788 0.0013 1.8377 60 60 60
-18.6024 -10.7547 4.2764 60 60 60
1.3574 0.2323 1.4867 60 60 60
-0.9601 10.2572 1.7176 60 60 60
0.9067 9.4360 1.4147 60 60 60
27.2909 -17.1289 6.4784 60 60 60
-6.1079 -2.5823 0.0256 60 60 60
-4.7343 1.4062 0.0030 60 60 60
7.4293 8.1412 0.0762 60 60 60
-4.0457 -4.5169 1.1139 60 60 60
-2.8946 6.0945 -0.0204 60 60 60
1.0419 9.4403 2.9713 60 60 60
6.1774 -10.5662 2.9484 60 60 60
3.6546 -4.2071 -0.1505 60 60 60
25.5580 -25.8384 2.3059 60 60 60
0.6151 8.2370 -0.0718 60 60 60
6.3677 -3.6254 -0.1633 60 60 60
1.1278 8.1010 -0.0803 60 60 60
2.5711 -8.4318 0.5292 60 60 60
0.9539 0.0004 1.8395 60 60 60
2.6004 4.4369 0.0199 60 60 60
0.4179 -5.1458 -0.1720 60 60 60
-1.7511 -11.3365 1.1169 60 60 60
0.9137 0.0010 1.8386 60 60 60
-3.5172 10.9903 2.0800 60 60 60
-1.7234 -11.3066 3.8430 60 60 60
