ply
format ascii 1.0
element vertex 1526
property float x
property float y
property float z
property uchar red
property uchar green
property uchar blue
end_header
24.3614 0.2174 0.2123 255 200 100
20.6687 -2.1169 -0.0086 255 200 100
17.2780 9.3828 4.1972 255 200 100
18.6228 9.1669 2.4393 255 200 100
19.9582 2.9854 0.0635 255 200 100
30.4652 2.6777 0.4846 255 200 100
26.0631 -3.7677 3.0419 255 200 100
16.3970 9.0329 3.2404 255 200 100
24.6766 -1.0248 0.1871 255 200 100
16.2298 8.9899 1.9828 255 200 100
28.5504 0.2446 0.5669 255 200 100
31.9874 3.9099 0.4176 255 200 100
17.6568 -4.1109 -0.1568 255 200 100
25.0827 -5.4923 0.7125 255 200 100
16.9404 9.3123 4.1590 255 200 100
20.2718 1.0923 0.0395 255 200 100
16.4251 3.3789 0.0126 255 200 100
18.1235 9.4764 4.2865 255 200 100
18.6836 6.6831 0.1443 255 200 100
30.0539 2.7558 3.2321 255 200 100
18.1738 7.4245 0.1786 255 200 100
19.7119 9.2190 1.4810 255 200 100
24.5002 -0.4630 0.2010 255 200 100
18.6276 9.1893 1.9756 255 200 100
26.9440 -2.3442 0.6345 255 200 100
16.3156 8.9752 0.7329 255 200 100
13.9312 1.5887 0.0069 255 200 100
30.6482 3.1883 1.8737 255 200 100
25.5284 -4.8417 0.1086 255 200 100
20.7507 -3.0669 -0.0241 255 200 100
24.2552 1.0349 0.2211 255 200 100
14.3513 -0.7236 -0.0497 255 200 100
20.8207 -4.5214 -0.0466 255 200 100
24.4636 -6.3695 1.3065 255 200 100
15.8560 5.0408 0.0500 255 200 100
19.7063 4.1966 0.0789 255 200 100
16.9635 -0.2122 -0.0327 255 200 100
28.8949 0.8915 1.2041 255 200 100
26.4824 -3.0776 3.0545 255 200 100
17.0205 9.0624 2.4106 255 200 100
23.4905 6.4222 0.2662 255 200 100
24.7569 -6.3070 3.0243 255 200 100
14.5459 6.2573 0.1672 255 200 100
15.9769 4.6925 0.0432 255 200 100
24.7261 -1.1649 0.1832 255 200 100
24.1250 3.3489 0.2304 255 200 100
25.4506 10.1648 0.7322 255 200 100
14.8808 8.8553 2.3725 255 200 100
29.6451 1.5978 0.5198 255 200 100
15.6039 6.1325 0.0537 255 200 100
14.0228 1.0591 -0.0021 255 200 100
14.5241 6.7939 1.2261 255 200 100
23.9417 4.4261 0.2414 255 200 100
13.7095 2.9537 0.0185 255 200 100
27.9164 -4.0362 1.8605 255 200 100
17.6178 9.1117 0.1969 255 200 100
16.8952 9.0467 1.1223 255 200 100
17.6948 -3.7072 -0.1538 255 200 100
25.9775 -3.9067 3.0396 255 200 100
24.5851 -0.7426 0.1943 255 200 100
16.3818 8.9980 1.1458 255 200 100
23.5348 6.2937 0.2637 255 200 100
13.5043 3.9346 0.0247 255 200 100
20.8249 -4.4014 -0.0455 255 200 100
24.1792 1.9853 0.2271 255 200 100
26.5254 -2.9262 2.4553 255 200 100
26.1056 -4.2047 0.6686 255 200 100
17.8669 9.1204 0.1750 255 200 100
13.6667 3.3367 0.0167 255 200 100
15.4232 8.8969 1.1895 255 200 100
14.4530 6.9006 2.6484 255 200 100
16.5910 9.0449 2.8255 255 200 100
19.6701 4.3027 0.0814 255 200 100
13.1424 5.3720 0.0293 255 200 100
27.4508 -1.4886 3.0907 255 200 100
24.8207 -5.7356 2.4433 255 200 100
24.9551 -2.3021 0.1628 255 200 100
24.7420 7.8221 0.7594 255 200 100
13.2664 4.9989 0.0255 255 200 100
25.7753 -4.1627 2.4468 255 200 100
13.7626 2.4933 0.0191 255 200 100
28.8896 0.8594 3.1617 255 200 100
14.2069 7.1696 0.1777 255 200 100
20.7147 -2.9442 -0.0196 255 200 100
13.3284 4.6069 0.0296 255 200 100
18.7503 9.1427 1.5041 255 200 100
25.7937 10.8203 0.7180 255 200 100
14.3934 -0.8854 -0.0568 255 200 100
20.6997 -2.8251 -0.0172 255 200 100
28.5852 0.3678 3.1451 255 200 100
25.1509 -5.3608 0.7097 255 200 100
25.6310 10.3833 1.3484 255 200 100
27.7257 -1.0406 3.1028 255 200 100
19.1612 5.5514 0.1156 255 200 100
20.3904 0.3052 0.0280 255 200 100
14.6745 8.6910 3.1263 255 200 100
25.5323 -4.5646 2.4452 255 200 100
34.2726 10.6044 4.4138 255 200 100
20.4199 0.1893 0.0251 255 200 100
28.2923 -0.1130 3.1299 255 200 100
28.0050 -0.5791 3.1158 255 200 100
25.1385 -5.2209 2.4437 255 200 100
17.5591 9.2710 4.6700 255 200 100
13.6884 3.1866 0.0168 255 200 100
27.4448 -1.4653 1.2320 255 200 100
13.1419 5.4567 0.0263 255 200 100
34.9162 12.7137 7.1099 255 200 100
13.1508 5.5486 0.0218 255 200 100
25.2577 -5.0904 0.7055 255 200 100
25.2976 -4.0641 0.1296 255 200 100
19.9206 3.3221 0.0652 255 200 100
23.2513 7.3476 0.2783 255 200 100
15.7634 8.9332 2.3875 255 200 100
20.8163 -5.3798 -0.0579 255 200 100
24.9221 -2.0192 0.1663 255 200 100
14.3208 -0.5660 -0.0444 255 200 100
17.6159 -3.2830 -0.1377 255 200 100
12.9928 5.9055 0.0291 255 200 100
25.6239 -4.4237 1.2744 255 200 100
24.0525 3.8908 0.2347 255 200 100
35.8605 10.0531 2.7970 255 200 100
14.6279 6.2018 0.1597 255 200 100
14.4490 6.5892 2.9892 255 200 100
26.5851 -2.9154 0.6497 255 200 100
17.6536 9.1113 0.6431 255 200 100
15.6465 8.8285 3.1869 255 200 100
23.3326 7.0881 0.2740 255 200 100
18.9986 9.1543 1.0261 255 200 100
20.1143 1.9853 0.0528 255 200 100
20.4971 -0.2668 0.0168 255 200 100
25.5134 10.3575 0.7298 255 200 100
26.6072 -2.7859 2.4564 255 200 100
13.7421 2.6467 0.0195 255 200 100
18.8281 6.4980 0.1339 255 200 100
15.6814 5.7635 0.0540 255 200 100
26.0198 -3.7548 2.4490 255 200 100
27.6256 -1.1906 3.0983 255 200 100
28.1974 -0.2695 3.1252 255 200 100
17.5430 9.2824 4.2143 255 200 100
24.7423 -5.8625 1.8729 255 200 100
24.1888 2.3934 0.2265 255 200 100
18.7748 9.1352 1.9737 255 200 100
25.8429 -4.3089 0.6804 255 200 100
26.3411 -3.3347 0.6599 255 200 100
13.8802 1.8938 0.0109 255 200 100
22.9867 8.4234 0.2903 255 200 100
16.2063 8.9955 1.5670 255 200 100
19.9953 2.7652 0.0611 255 200 100
28.5985 0.4029 1.2094 255 200 100
16.6182 1.8173 0.0048 255 200 100
20.7577 -3.3035 -0.0270 255 200 100
17.0383 -0.6838 -0.0433 255 200 100
20.4347 0.0765 0.0235 255 200 100
30.0370 2.7690 2.5506 255 200 100
18.1508 7.6523 0.1769 255 200 100
30.5229 3.5364 1.1779 255 200 100
16.1674 7.2047 0.3601 255 200 100
20.6020 -1.0704 0.0040 255 200 100
12.5430 6.0299 0.0826 255 200 100
25.1005 -5.3629 3.0211 255 200 100
16.2576 4.1974 0.0199 255 200 100
20.7926 -5.7490 -0.0613 255 200 100
13.8098 2.1159 0.0179 255 200 100
19.3063 5.2483 0.1057 255 200 100
28.7977 0.7275 1.2058 255 200 100
29.8795 1.4431 0.5086 255 200 100
23.9748 4.2944 0.2394 255 200 100
20.2932 0.8685 0.0375 255 200 100
34.8921 10.4197 2.7847 255 200 100
13.6420 3.4910 0.0167 255 200 100
28.7572 0.5728 0.5582 255 200 100
14.4525 6.7022 2.6396 255 200 100
14.9328 8.8439 0.8251 255 200 100
20.5635 -0.7264 0.0091 255 200 100
35.5459 11.5049 2.8238 255 200 100
14.2459 -0.1732 -0.0321 255 200 100
20.4548 -0.0366 0.0214 255 200 100
17.0120 -0.5892 -0.0398 255 200 100
26.4270 -3.0638 2.4537 255 200 100
17.4151 -2.6486 -0.1054 255 200 100
18.9260 9.1336 0.5582 255 200 100
18.6125 6.7701 0.1494 255 200 100
25.5222 10.1711 1.3487 255 200 100
27.2663 -1.7652 1.2357 255 200 100
18.5563 6.8659 0.1531 255 200 100
24.1043 3.6201 0.2315 255 200 100
18.0230 8.4446 0.1743 255 200 100
23.8832 4.8294 0.2445 255 200 100
20.8001 -5.6269 -0.0601 255 200 100
14.9864 8.8586 1.2095 255 200 100
28.4873 0.2032 3.1399 255 200 100
26.3767 -3.2015 1.2558 255 200 100
17.1497 -1.2609 -0.0600 255 200 100
24.8905 8.3382 0.7538 255 200 100
16.2605 7.2037 1.5422 255 200 100
15.1221 8.9282 1.5943 255 200 100
36.3020 8.9921 6.2056 255 200 100
20.8215 -4.6429 -0.0483 255 200 100
15.1784 8.9061 2.7706 255 200 100
29.3035 1.5657 1.1971 255 200 100
28.0551 -0.5433 0.5878 255 200 100
20.6663 -2.4712 -0.0111 255 200 100
13.0238 5.8364 0.0277 255 200 100
25.4606 -4.6976 2.4449 255 200 100
14.4678 7.0904 3.0178 255 200 100
24.5412 7.0030 0.7668 255 200 100
15.8115 5.5147 0.0451 255 200 100
36.2956 11.1006 1.9676 255 200 100
18.4183 9.2056 1.9770 255 200 100
14.0573 0.8317 -0.0058 255 200 100
19.8815 3.4286 0.0682 255 200 100
24.5940 -6.1162 1.8753 255 200 100
20.8142 -3.7954 -0.0374 255 200 100
14.8987 8.8415 0.4373 255 200 100
19.0803 5.8769 0.1191 255 200 100
15.6180 6.0355 0.0546 255 200 100
17.3650 9.4119 4.6606 255 200 100
24.6522 -0.8863 0.1892 255 200 100
16.4003 7.0489 1.5369 255 200 100
16.6368 1.4481 0.0045 255 200 100
20.8240 -4.1566 -0.0425 255 200 100
24.5177 -6.2450 2.4442 255 200 100
14.3844 -0.8039 -0.0549 255 200 100
16.4743 3.0106 0.0113 255 200 100
23.7273 5.6379 0.2528 255 200 100
19.7311 9.2080 1.9714 255 200 100
19.4540 9.2287 4.8928 255 200 100
16.5011 9.0125 2.4010 255 200 100
17.0653 -0.8726 -0.0475 255 200 100
13.5491 3.7035 0.0244 255 200 100
26.8228 -2.4921 1.2455 255 200 100
14.4712 6.8268 2.2918 255 200 100
17.6943 -3.6054 -0.1520 255 200 100
17.9405 8.7823 0.1752 255 200 100
26.5551 -2.9194 1.2516 255 200 100
26.5173 -3.9782 1.8600 255 200 100
25.2519 -3.7680 0.1346 255 200 100
19.9302 3.2070 0.0649 255 200 100
13.3049 4.7650 0.0279 255 200 100
14.2808 -0.4066 -0.0379 255 200 100
24.4524 -6.3729 2.4447 255 200 100
29.1934 1.3622 3.1790 255 200 100
20.2258 1.3176 0.0436 255 200 100
17.5372 9.1214 1.9792 255 200 100
16.5731 2.5584 0.0045 255 200 100
23.6375 5.8953 0.2581 255 200 100
15.8567 4.9448 0.0519 255 200 100
14.0715 7.4009 0.1850 255 200 100
18.4780 9.5362 4.3259 255 200 100
24.5238 -6.2433 1.8766 255 200 100
16.2816 4.1083 0.0186 255 200 100
24.1405 2.9367 0.2297 255 200 100
25.0549 -5.4945 1.8697 255 200 100
17.1957 -1.4545 -0.0669 255 200 100
13.4581 4.2449 0.0227 255 200 100
19.5320 4.7309 0.0903 255 200 100
17.0051 -0.4956 -0.0386 255 200 100
26.9732 -2.2156 2.4626 255 200 100
24.5840 -6.1170 2.4437 255 200 100
29.5156 1.8774 3.1982 255 200 100
16.5378 9.0032 0.2928 255 200 100
23.8185 5.2365 0.2478 255 200 100
14.2024 0.1383 -0.0252 255 200 100
15.0745 8.7098 3.1487 255 200 100
27.3581 -1.6360 3.0868 255 200 100
20.8182 -4.0354 -0.0405 255 200 100
16.8459 9.0661 2.8355 255 200 100
20.6103 -1.3031 0.0020 255 200 100
25.4092 9.7903 1.3473 255 200 100
18.5644 9.1894 4.3068 255 200 100
16.2297 7.2179 0.7536 255 200 100
25.8540 -4.0285 2.4474 255 200 100
13.9648 1.3625 0.0041 255 200 100
25.1654 9.2314 0.7432 255 200 100
19.6017 4.5154 0.0858 255 200 100
26.0981 -3.6186 2.4498 255 200 100
13.4787 4.0874 0.0242 255 200 100
14.2566 6.8996 0.1805 255 200 100
19.0591 9.1448 1.9727 255 200 100
30.5050 3.0006 1.8723 255 200 100
26.9969 -2.2055 1.2416 255 200 100
25.0428 8.8624 0.7480 255 200 100
26.5694 -2.9341 3.0573 255 200 100
13.7303 2.7219 0.0198 255 200 100
28.6442 0.4103 0.5630 255 200 100
22.4963 10.4730 0.3091 255 200 100
20.8112 -5.2589 -0.0557 255 200 100
20.0017 2.6500 0.0610 255 200 100
25.7421 -5.4915 0.0893 255 200 100
22.9263 8.5420 0.2937 255 200 100
25.4288 -4.8272 0.6982 255 200 100
16.5246 2.7366 0.0084 255 200 100
16.7313 7.0323 3.1485 255 200 100
27.3037 -1.7589 0.6194 255 200 100
25.1178 -3.3144 0.1464 255 200 100
14.4394 6.5059 2.6307 255 200 100
25.1044 9.0534 0.7456 255 200 100
18.6226 9.2029 1.5081 255 200 100
14.1135 7.3211 0.1830 255 200 100
24.7770 -1.4441 0.1786 255 200 100
16.1567 7.3111 0.3591 255 200 100
31.9662 6.1320 0.4238 255 200 100
30.0654 2.8015 1.1848 255 200 100
29.2241 1.3846 1.8621 255 200 100
25.4029 9.8104 0.7336 255 200 100
25.3005 -4.9628 2.4442 255 200 100
17.3290 -2.1433 -0.0892 255 200 100
28.3996 0.0781 1.2130 255 200 100
12.7428 6.0437 0.0562 255 200 100
16.9169 -0.0260 -0.0267 255 200 100
16.9859 -0.4017 -0.0359 255 200 100
15.3726 8.8850 0.7958 255 200 100
14.4566 6.7896 3.0005 255 200 100
14.0739 0.7537 -0.0079 255 200 100
24.1325 3.2089 0.2300 255 200 100
19.2326 5.3387 0.1115 255 200 100
18.3125 9.1900 1.0576 255 200 100
28.1535 -0.3881 0.5836 255 200 100
24.5390 -0.6045 0.1979 255 200 100
16.7083 7.0347 2.7401 255 200 100
28.1687 -3.4293 1.8582 255 200 100
20.6598 -2.2351 -0.0086 255 200 100
16.4625 3.1019 0.0117 255 200 100
19.4454 4.9381 0.0962 255 200 100
16.5696 9.0020 0.7158 255 200 100
24.2588 0.8999 0.2206 255 200 100
26.7284 -2.6334 1.2476 255 200 100
27.6803 -1.1593 0.6035 255 200 100
18.8322 9.1446 2.4419 255 200 100
12.9691 5.9809 0.0293 255 200 100
16.7081 0.9911 -0.0024 255 200 100
27.2605 -1.7867 3.0828 255 200 100
15.5134 8.9173 1.9851 255 200 100
20.6116 -1.1853 0.0025 255 200 100
20.6838 -2.5862 -0.0136 255 200 100
23.9342 4.5586 0.2416 255 200 100
22.7941 8.9348 0.3002 255 200 100
13.3540 4.5368 0.0283 255 200 100
25.0231 -2.7312 0.1560 255 200 100
13.8382 7.9764 0.1906 255 200 100
16.7956 9.0256 0.2700 255 200 100
25.0692 -5.3473 1.2892 255 200 100
16.3473 3.8366 0.0153 255 200 100
14.0821 0.6775 -0.0088 255 200 100
18.6152 9.2191 1.0438 255 200 100
20.0069 2.5381 0.0610 255 200 100
24.4528 -6.3698 1.8778 255 200 100
26.2891 -3.3347 1.2578 255 200 100
16.5078 9.3065 4.1174 255 200 100
25.6939 -4.2958 2.4462 255 200 100
16.6821 1.0841 0.0004 255 200 100
27.0286 -2.1999 0.6310 255 200 100
16.6459 1.5410 0.0030 255 200 100
16.1154 9.1881 4.0702 255 200 100
30.1620 2.9409 3.2392 255 200 100
25.7921 -4.1538 1.2701 255 200 100
24.8287 7.6786 1.3398 255 200 100
16.7671 0.6235 -0.0087 255 200 100
15.0911 8.8707 2.3759 255 200 100
24.3151 0.4917 0.2161 255 200 100
13.9450 1.7466 0.0035 255 200 100
24.3317 0.3567 0.2147 255 200 100
17.1622 -1.3566 -0.0622 255 200 100
25.3459 -4.2218 0.1253 255 200 100
17.9124 8.8889 0.1756 255 200 100
13.7459 2.5675 0.0202 255 200 100
30.6343 3.7289 1.1764 255 200 100
25.5699 -4.5768 3.0297 255 200 100
24.6802 -5.9890 1.3001 255 200 100
20.3763 0.4143 0.0295 255 200 100
25.2395 -3.6223 0.1363 255 200 100
14.2270 -0.0160 -0.0290 255 200 100
17.4620 -2.8532 -0.1136 255 200 100
13.7313 2.8023 0.0183 255 200 100
25.9359 -3.8941 2.4482 255 200 100
24.0903 3.7595 0.2323 255 200 100
20.3654 0.5301 0.0306 255 200 100
18.0988 9.4834 3.8222 255 200 100
17.2657 9.0959 1.9799 255 200 100
15.1497 8.8622 0.8107 255 200 100
31.9423 3.1783 0.4180 255 200 100
25.2105 -3.4746 0.1391 255 200 100
25.1698 -5.2322 3.0220 255 200 100
23.5803 6.1654 0.2610 255 200 100
28.6857 0.5595 1.2078 255 200 100
17.1672 9.0803 1.1099 255 200 100
16.0745 8.9529 0.7490 255 200 100
17.3418 9.0891 0.2213 255 200 100
29.1397 1.2175 1.8612 255 200 100
24.6017 7.1700 0.7644 255 200 100
24.8601 -5.7489 3.0175 255 200 100
28.1988 -0.2420 1.2169 255 200 100
18.4634 9.2131 2.4383 255 200 100
27.5424 -1.3168 1.2299 255 200 100
15.8341 8.9317 0.7650 255 200 100
17.2685 -1.8469 -0.0790 255 200 100
15.2712 8.7170 3.1597 255 200 100
25.0027 -2.5879 0.1581 255 200 100
16.1299 8.9699 1.1573 255 200 100
24.6859 7.5007 0.7613 255 200 100
26.3114 -3.3492 3.0490 255 200 100
18.1837 7.5475 0.1757 255 200 100
36.1717 10.8391 1.9635 255 200 100
16.6049 2.1884 0.0039 255 200 100
24.2959 0.6266 0.2176 255 200 100
25.6598 -5.1697 0.0973 255 200 100
23.4205 6.6845 0.2698 255 200 100
16.3615 3.7452 0.0150 255 200 100
26.1878 -3.4831 2.4509 255 200 100
24.1288 3.4865 0.2300 255 200 100
17.8046 9.1575 1.5283 255 200 100
17.8490 9.1418 2.4261 255 200 100
24.9893 -2.4458 0.1597 255 200 100
27.0971 -2.0743 2.4651 255 200 100
17.2913 -1.9456 -0.0826 255 200 100
17.6511 9.1442 2.8677 255 200 100
13.4889 4.0101 0.0249 255 200 100
24.1930 1.7115 0.2260 255 200 100
14.1115 0.6022 -0.0128 255 200 100
24.1907 1.8467 0.2263 255 200 100
24.8838 -1.8723 0.1696 255 200 100
17.7169 9.1259 1.0848 255 200 100
14.1738 0.2920 -0.0212 255 200 100
16.8595 9.4086 3.7231 255 200 100
25.6698 -5.3258 0.0955 255 200 100
13.5388 3.8626 0.0219 255 200 100
24.4104 -0.0538 0.2083 255 200 100
25.3471 -4.9622 0.7017 255 200 100
36.3783 8.7955 6.2058 255 200 100
17.3581 -2.3442 -0.0949 255 200 100
30.4953 3.3183 3.2594 255 200 100
16.8528 9.5285 3.7315 255 200 100
26.7443 -2.6536 3.0633 255 200 100
27.9150 -0.7114 1.2224 255 200 100
30.1800 2.9830 1.1830 255 200 100
14.1602 7.2438 0.1804 255 200 100
25.3804 -4.8282 2.4445 255 200 100
15.5321 8.9096 2.3834 255 200 100
25.3482 9.6078 1.3468 255 200 100
16.3586 9.3179 4.5353 255 200 100
19.4108 9.1883 1.9722 255 200 100
26.8787 -2.3580 2.4609 255 200 100
29.1020 1.2286 1.2004 255 200 100
13.3913 4.3845 0.0277 255 200 100
16.5062 2.8296 0.0096 255 200 100
15.5413 6.6858 0.8038 255 200 100
15.6523 8.9202 1.1791 255 200 100
16.0380 8.9508 0.3371 255 200 100
16.2773 8.9723 0.3160 255 200 100
20.1375 1.8753 0.0509 255 200 100
35.5030 10.1728 2.7920 255 200 100
15.6553 5.8521 0.0548 255 200 100
24.4638 -0.1941 0.2043 255 200 100
17.2313 9.3763 3.7486 255 200 100
24.3287 8.6752 0.4501 0 255 0
24.3199 8.6464 0.4501 0 255 0
24.3111 8.6175 0.4501 0 255 0
24.3022 8.5887 0.4501 0 255 0
24.2934 8.5598 0.4501 0 255 0
24.2845 8.5310 0.4501 0 255 0
24.2757 8.5021 0.4501 0 255 0
24.2669 8.4733 0.4501 0 255 0
24.2580 8.4444 0.4501 0 255 0
24.2492 8.4156 0.4501 0 255 0
24.2403 8.3867 0.4501 0 255 0
24.2315 8.3579 0.4501 0 255 0
24.2227 8.3291 0.4501 0 255 0
24.2138 8.3002 0.4501 0 255 0
24.2050 8.2714 0.4501 0 255 0
24.1961 8.2425 0.4501 0 255 0
24.1873 8.2137 0.4501 0 255 0
24.1785 8.1848 0.4501 0 255 0
24.1696 8.1560 0.4501 0 255 0
24.1608 8.1271 0.4501 0 255 0
24.1519 8.0983 0.4501 0 255 0
24.1431 8.0694 0.4501 0 255 0
24.1343 8.0406 0.4501 0 255 0
24.1254 8.0118 0.4501 0 255 0
24.1166 7.9829 0.4501 0 255 0
24.1078 7.9541 0.4501 0 255 0
24.0989 7.9252 0.4501 0 255 0
24.0901 7.8964 0.4501 0 255 0
24.0812 7.8675 0.4501 0 255 0
24.0724 7.8387 0.4501 0 255 0
24.0636 7.8098 0.4501 0 255 0
24.0547 7.7810 0.4501 0 255 0
24.0459 7.7521 0.4501 0 255 0
24.0370 7.7233 0.4501 0 255 0
24.0282 7.6944 0.4501 0 255 0
24.0194 7.6656 0.4501 0 255 0
24.0105 7.6368 0.4501 0 255 0
24.0017 7.6079 0.4501 0 255 0
23.9928 7.5791 0.4501 0 255 0
23.9840 7.5502 0.4501 0 255 0
23.9752 7.5214 0.4501 0 255 0
23.9663 7.4925 0.4501 0 255 0
23.9575 7.4637 0.4501 0 255 0
23.9487 7.4348 0.4501 0 255 0
23.9398 7.4060 0.4501 0 255 0
23.9310 7.3771 0.4501 0 255 0
23.9221 7.3483 0.4501 0 255 0
23.9133 7.3195 0.4501 0 255 0
23.9045 7.2906 0.4501 0 255 0
23.8956 7.2618 0.4501 0 255 0
23.8868 7.2329 0.4501 0 255 0
23.8779 7.2041 0.4501 0 255 0
23.8691 7.1752 0.4501 0 255 0
23.8603 7.1464 0.4501 0 255 0
23.8514 7.1175 0.4501 0 255 0
23.8426 7.0887 0.4501 0 255 0
23.8337 7.0598 0.4501 0 255 0
23.8249 7.0310 0.4501 0 255 0
23.8161 7.0021 0.4501 0 255 0
23.8072 6.9733 0.4501 0 255 0
23.7984 6.9445 0.4501 0 255 0
23.7896 6.9156 0.4501 0 255 0
23.7807 6.8868 0.4501 0 255 0
23.7719 6.8579 0.4501 0 255 0
23.7630 6.8291 0.4501 0 255 0
23.7542 6.8002 0.4501 0 255 0
23.7454 6.7714 0.4501 0 255 0
23.7365 6.7425 0.4501 0 255 0
23.7277 6.7137 0.4501 0 255 0
23.7188 6.6848 0.4501 0 255 0
23.7100 6.6560 0.4501 0 255 0
23.7012 6.6272 0.4501 0 255 0
23.6923 6.5983 0.4501 0 255 0
23.6835 6.5695 0.4501 0 255 0
23.6746 6.5406 0.4501 0 255 0
23.6658 6.5118 0.4501 0 255 0
23.6570 6.4829 0.4501 0 255 0
23.6481 6.4541 0.4501 0 255 0
23.6393 6.4252 0.4501 0 255 0
23.6304 6.3964 0.4501 0 255 0
23.6216 6.3675 0.4501 0 255 0
23.6128 6.3387 0.4501 0 255 0
23.6039 6.3098 0.4501 0 255 0
23.5951 6.2810 0.4501 0 255 0
23.5863 6.2522 0.4501 0 255 0
23.5774 6.2233 0.4501 0 255 0
23.5686 6.1945 0.4501 0 255 0
23.5597 6.1656 0.4501 0 255 0
23.5509 6.1368 0.4501 0 255 0
23.5421 6.1079 0.4501 0 255 0
23.5332 6.0791 0.4501 0 255 0
23.5244 6.0502 0.4501 0 255 0
23.5155 6.0214 0.4501 0 255 0
23.5067 5.9925 0.4501 0 255 0
23.4979 5.9637 0.4501 0 255 0
23.4890 5.9349 0.4501 0 255 0
23.4802 5.9060 0.4501 0 255 0
23.4713 5.8772 0.4501 0 255 0
23.4625 5.8483 0.4501 0 255 0
23.4537 5.8195 0.4501 0 255 0
23.4448 5.7906 0.4501 0 255 0
23.4360 5.7618 0.4501 0 255 0
23.4272 5.7329 0.4501 0 255 0
23.4183 5.7041 0.4501 0 255 0
23.4095 5.6752 0.4501 0 255 0
23.4006 5.6464 0.4501 0 255 0
23.3918 5.6175 0.4501 0 255 0
23.3830 5.5887 0.4501 0 255 0
23.3741 5.5599 0.4501 0 255 0
23.3653 5.5310 0.4501 0 255 0
23.3564 5.5022 0.4501 0 255 0
23.3476 5.4733 0.4501 0 255 0
23.3388 5.4445 0.4501 0 255 0
23.3299 5.4156 0.4501 0 255 0
23.3211 5.3868 0.4501 0 255 0
23.3122 5.3579 0.4501 0 255 0
23.3034 5.3291 0.4501 0 255 0
23.2946 5.3002 0.4501 0 255 0
23.2857 5.2714 0.4501 0 255 0
23.2769 5.2426 0.4501 0 255 0
23.2680 5.2137 0.4501 0 255 0
23.2592 5.1849 0.4501 0 255 0
23.2504 5.1560 0.4501 0 255 0
23.2415 5.1272 0.4501 0 255 0
23.2327 5.0983 0.4501 0 255 0
23.2239 5.0695 0.4501 0 255 0
23.2150 5.0406 0.4501 0 255 0
23.2062 5.0118 0.4501 0 255 0
23.1973 4.9829 0.4501 0 255 0
23.1885 4.9541 0.4501 0 255 0
23.1797 4.9252 0.4501 0 255 0
23.1708 4.8964 0.4501 0 255 0
23.1620 4.8676 0.4501 0 255 0
23.1531 4.8387 0.4501 0 255 0
23.1443 4.8099 0.4501 0 255 0
23.1355 4.7810 0.4501 0 255 0
23.1266 4.7522 0.4501 0 255 0
23.1178 4.7233 0.4501 0 255 0
23.1089 4.6945 0.4501 0 255 0
23.1001 4.6656 0.4501 0 255 0
23.0913 4.6368 0.4501 0 255 0
23.0824 4.6079 0.4501 0 255 0
23.0736 4.5791 0.4501 0 255 0
23.0648 4.5503 0.4501 0 255 0
23.0559 4.5214 0.4501 0 255 0
23.0471 4.4926 0.4501 0 255 0
23.0382 4.4637 0.4501 0 255 0
23.0294 4.4349 0.4501 0 255 0
23.0206 4.4060 0.4501 0 255 0
23.0117 4.3772 0.4501 0 255 0
23.0029 4.3483 0.4501 0 255 0
22.9940 4.3195 0.4501 0 255 0
22.9852 4.2906 0.4501 0 255 0
22.9764 4.2618 0.4501 0 255 0
22.9675 4.2329 0.4501 0 255 0
22.9587 4.2041 0.4501 0 255 0
22.9498 4.1753 0.4501 0 255 0
22.9410 4.1464 0.4501 0 255 0
22.9322 4.1176 0.4501 0 255 0
22.9233 4.0887 0.4501 0 255 0
22.9145 4.0599 0.4501 0 255 0
22.9056 4.0310 0.4501 0 255 0
22.8968 4.0022 0.4501 0 255 0
22.8880 3.9733 0.4501 0 255 0
22.8791 3.9445 0.4501 0 255 0
22.8703 3.9156 0.4501 0 255 0
22.8703 3.9156 0.4501 0 255 0
22.8826 3.9119 0.4501 0 255 0
22.8949 3.9081 0.4501 0 255 0
22.9072 3.9043 0.4501 0 255 0
22.9195 3.9006 0.4501 0 255 0
22.9317 3.8968 0.4501 0 255 0
22.9440 3.8930 0.4501 0 255 0
22.9563 3.8893 0.4501 0 255 0
22.9686 3.8855 0.4501 0 255 0
22.9809 3.8817 0.4501 0 255 0
22.9932 3.8780 0.4501 0 255 0
23.0055 3.8742 0.4501 0 255 0
23.0178 3.8704 0.4501 0 255 0
23.0301 3.8667 0.4501 0 255 0
23.0424 3.8629 0.4501 0 255 0
23.0546 3.8592 0.4501 0 255 0
23.0669 3.8554 0.4501 0 255 0
23.0792 3.8516 0.4501 0 255 0
23.0915 3.8479 0.4501 0 255 0
23.1038 3.8441 0.4501 0 255 0
23.1161 3.8403 0.4501 0 255 0
23.1284 3.8366 0.4501 0 255 0
23.1407 3.8328 0.4501 0 255 0
23.1530 3.8290 0.4501 0 255 0
23.1653 3.8253 0.4501 0 255 0
23.1776 3.8215 0.4501 0 255 0
23.1898 3.8177 0.4501 0 255 0
23.2021 3.8140 0.4501 0 255 0
23.2144 3.8102 0.4501 0 255 0
23.2267 3.8064 0.4501 0 255 0
23.2390 3.8027 0.4501 0 255 0
23.2513 3.7989 0.4501 0 255 0
23.2636 3.7951 0.4501 0 255 0
23.2759 3.7914 0.4501 0 255 0
23.2882 3.7876 0.4501 0 255 0
23.3005 3.7838 0.4501 0 255 0
23.3127 3.7801 0.4501 0 255 0
23.3250 3.7763 0.4501 0 255 0
23.3373 3.7725 0.4501 0 255 0
23.3496 3.7688 0.4501 0 255 0
23.3619 3.7650 0.4501 0 255 0
23.3742 3.7612 0.4501 0 255 0
23.3865 3.7575 0.4501 0 255 0
23.3988 3.7537 0.4501 0 255 0
23.4111 3.7499 0.4501 0 255 0
23.4234 3.7462 0.4501 0 255 0
23.4357 3.7424 0.4501 0 255 0
23.4479 3.7386 0.4501 0 255 0
23.4602 3.7349 0.4501 0 255 0
23.4725 3.7311 0.4501 0 255 0
23.4848 3.7273 0.4501 0 255 0
23.4971 3.7236 0.4501 0 255 0
23.5094 3.7198 0.4501 0 255 0
23.5217 3.7160 0.4501 0 255 0
23.5340 3.7123 0.4501 0 255 0
23.5463 3.7085 0.4501 0 255 0
23.5586 3.7047 0.4501 0 255 0
23.5709 3.7010 0.4501 0 255 0
23.5831 3.6972 0.4501 0 255 0
23.5954 3.6934 0.4501 0 255 0
23.6077 3.6897 0.4501 0 255 0
23.6200 3.6859 0.4501 0 255 0
23.6323 3.6821 0.4501 0 255 0
23.6446 3.6784 0.4501 0 255 0
23.6569 3.6746 0.4501 0 255 0
23.6692 3.6708 0.4501 0 255 0
23.6815 3.6671 0.4501 0 255 0
23.6938 3.6633 0.4501 0 255 0
23.7060 3.6595 0.4501 0 255 0
23.7183 3.6558 0.4501 0 255 0
23.7306 3.6520 0.4501 0 255 0
23.7429 3.6483 0.4501 0 255 0
23.7552 3.6445 0.4501 0 255 0
23.7675 3.6407 0.4501 0 255 0
23.7798 3.6370 0.4501 0 255 0
23.7921 3.6332 0.4501 0 255 0
23.8044 3.6294 0.4501 0 255 0
23.8167 3.6257 0.4501 0 255 0
23.8290 3.6219 0.4501 0 255 0
23.8412 3.6181 0.4501 0 255 0
23.8535 3.6144 0.4501 0 255 0
23.8658 3.6106 0.4501 0 255 0
23.8781 3.6068 0.4501 0 255 0
23.8904 3.6031 0.4501 0 255 0
23.9027 3.5993 0.4501 0 255 0
23.9150 3.5955 0.4501 0 255 0
23.9273 3.5918 0.4501 0 255 0
23.9396 3.5880 0.4501 0 255 0
23.9519 3.5842 0.4501 0 255 0
23.9641 3.5805 0.4501 0 255 0
23.9764 3.5767 0.4501 0 255 0
23.9887 3.5729 0.4501 0 255 0
24.0010 3.5692 0.4501 0 255 0
24.0133 3.5654 0.4501 0 255 0
24.0256 3.5616 0.4501 0 255 0
24.0379 3.5579 0.4501 0 255 0
24.0502 3.5541 0.4501 0 255 0
24.0625 3.5503 0.4501 0 255 0
24.0748 3.5466 0.4501 0 255 0
24.0870 3.5428 0.4501 0 255 0
24.0993 3.5390 0.4501 0 255 0
24.1116 3.5353 0.4501 0 255 0
24.1239 3.5315 0.4501 0 255 0
24.1362 3.5277 0.4501 0 255 0
24.1485 3.5240 0.4501 0 255 0
24.1608 3.5202 0.4501 0 255 0
24.1731 3.5164 0.4501 0 255 0
24.1854 3.5127 0.4501 0 255 0
24.1977 3.5089 0.4501 0 255 0
24.2100 3.5051 0.4501 0 255 0
24.2222 3.5014 0.4501 0 255 0
24.2345 3.4976 0.4501 0 255 0
24.2468 3.4938 0.4501 0 255 0
24.2591 3.4901 0.4501 0 255 0
24.2714 3.4863 0.4501 0 255 0
24.2837 3.4825 0.4501 0 255 0
24.2960 3.4788 0.4501 0 255 0
24.3083 3.4750 0.4501 0 255 0
24.3206 3.4712 0.4501 0 255 0
24.3329 3.4675 0.4501 0 255 0
24.3451 3.4637 0.4501 0 255 0
24.3574 3.4599 0.4501 0 255 0
24.3697 3.4562 0.4501 0 255 0
24.3820 3.4524 0.4501 0 255 0
24.3943 3.4486 0.4501 0 255 0
24.4066 3.4449 0.4501 0 255 0
24.4189 3.4411 0.4501 0 255 0
24.4312 3.4373 0.4501 0 255 0
24.4435 3.4336 0.4501 0 255 0
24.4558 3.4298 0.4501 0 255 0
24.4681 3.4261 0.4501 0 255 0
24.4803 3.4223 0.4501 0 255 0
24.4926 3.4185 0.4501 0 255 0
24.5049 3.4148 0.4501 0 255 0
24.5172 3.4110 0.4501 0 255 0
24.5295 3.4072 0.4501 0 255 0
24.5418 3.4035 0.4501 0 255 0
24.5541 3.3997 0.4501 0 255 0
24.5664 3.3959 0.4501 0 255 0
24.5787 3.3922 0.4501 0 255 0
24.5910 3.3884 0.4501 0 255 0
24.6033 3.3846 0.4501 0 255 0
24.6155 3.3809 0.4501 0 255 0
24.6278 3.3771 0.4501 0 255 0
24.6401 3.3733 0.4501 0 255 0
24.6524 3.3696 0.4501 0 255 0
24.6647 3.3658 0.4501 0 255 0
24.6770 3.3620 0.4501 0 255 0
24.6893 3.3583 0.4501 0 255 0
24.7016 3.3545 0.4501 0 255 0
24.7139 3.3507 0.4501 0 255 0
24.7262 3.3470 0.4501 0 255 0
24.7384 3.3432 0.4501 0 255 0
24.7507 3.3394 0.4501 0 255 0
24.7630 3.3357 0.4501 0 255 0
24.7753 3.3319 0.4501 0 255 0
24.7876 3.3281 0.4501 0 255 0
24.7999 3.3244 0.4501 0 255 0
24.8122 3.3206 0.4501 0 255 0
24.8245 3.3168 0.4501 0 255 0
24.8368 3.3131 0.4501 0 255 0
24.8491 3.3093 0.4501 0 255 0
24.8614 3.3055 0.4501 0 255 0
24.8736 3.3018 0.4501 0 255 0
24.8859 3.2980 0.4501 0 255 0
24.8982 3.2942 0.4501 0 255 0
24.8982 3.2942 0.4501 0 255 0
24.9071 3.3231 0.4501 0 255 0
24.9159 3.3519 0.4501 0 255 0
24.9247 3.3808 0.4501 0 255 0
24.9336 3.4096 0.4501 0 255 0
24.9424 3.4385 0.4501 0 255 0
24.9513 3.4673 0.4501 0 255 0
24.9601 3.4962 0.4501 0 255 0
24.9689 3.5250 0.4501 0 255 0
24.9778 3.5539 0.4501 0 255 0
24.9866 3.5827 0.4501 0 255 0
24.9955 3.6115 0.4501 0 255 0
25.0043 3.6404 0.4501 0 255 0
25.0131 3.6692 0.4501 0 255 0
25.0220 3.6981 0.4501 0 255 0
25.0308 3.7269 0.4501 0 255 0
25.0396 3.7558 0.4501 0 255 0
25.0485 3.7846 0.4501 0 255 0
25.0573 3.8135 0.4501 0 255 0
25.0662 3.8423 0.4501 0 255 0
25.0750 3.8712 0.4501 0 255 0
25.0838 3.9000 0.4501 0 255 0
25.0927 3.9288 0.4501 0 255 0
25.1015 3.9577 0.4501 0 255 0
25.1104 3.9865 0.4501 0 255 0
25.1192 4.0154 0.4501 0 255 0
25.1280 4.0442 0.4501 0 255 0
25.1369 4.0731 0.4501 0 255 0
25.1457 4.1019 0.4501 0 255 0
25.1546 4.1308 0.4501 0 255 0
25.1634 4.1596 0.4501 0 255 0
25.1722 4.1885 0.4501 0 255 0
25.1811 4.2173 0.4501 0 255 0
25.1899 4.2462 0.4501 0 255 0
25.1987 4.2750 0.4501 0 255 0
25.2076 4.3038 0.4501 0 255 0
25.2164 4.3327 0.4501 0 255 0
25.2253 4.3615 0.4501 0 255 0
25.2341 4.3904 0.4501 0 255 0
25.2429 4.4192 0.4501 0 255 0
25.2518 4.4481 0.4501 0 255 0
25.2606 4.4769 0.4501 0 255 0
25.2695 4.5058 0.4501 0 255 0
25.2783 4.5346 0.4501 0 255 0
25.2871 4.5635 0.4501 0 255 0
25.2960 4.5923 0.4501 0 255 0
25.3048 4.6211 0.4501 0 255 0
25.3137 4.6500 0.4501 0 255 0
25.3225 4.6788 0.4501 0 255 0
25.3313 4.7077 0.4501 0 255 0
25.3402 4.7365 0.4501 0 255 0
25.3490 4.7654 0.4501 0 255 0
25.3579 4.7942 0.4501 0 255 0
25.3667 4.8231 0.4501 0 255 0
25.3755 4.8519 0.4501 0 255 0
25.3844 4.8808 0.4501 0 255 0
25.3932 4.9096 0.4501 0 255 0
25.4020 4.9385 0.4501 0 255 0
25.4109 4.9673 0.4501 0 255 0
25.4197 4.9961 0.4501 0 255 0
25.4286 5.0250 0.4501 0 255 0
25.4374 5.0538 0.4501 0 255 0
25.4462 5.0827 0.4501 0 255 0
25.4551 5.1115 0.4501 0 255 0
25.4639 5.1404 0.4501 0 255 0
25.4728 5.1692 0.4501 0 255 0
25.4816 5.1981 0.4501 0 255 0
25.4904 5.2269 0.4501 0 255 0
25.4993 5.2558 0.4501 0 255 0
25.5081 5.2846 0.4501 0 255 0
25.5170 5.3134 0.4501 0 255 0
25.5258 5.3423 0.4501 0 255 0
25.5346 5.3711 0.4501 0 255 0
25.5435 5.4000 0.4501 0 255 0
25.5523 5.4288 0.4501 0 255 0
25.5611 5.4577 0.4501 0 255 0
25.5700 5.4865 0.4501 0 255 0
25.5788 5.5154 0.4501 0 255 0
25.5877 5.5442 0.4501 0 255 0
25.5965 5.5731 0.4501 0 255 0
25.6053 5.6019 0.4501 0 255 0
25.6142 5.6308 0.4501 0 255 0
25.6230 5.6596 0.4501 0 255 0
25.6319 5.6884 0.4501 0 255 0
25.6407 5.7173 0.4501 0 255 0
25.6495 5.7461 0.4501 0 255 0
25.6584 5.7750 0.4501 0 255 0
25.6672 5.8038 0.4501 0 255 0
25.6761 5.8327 0.4501 0 255 0
25.6849 5.8615 0.4501 0 255 0
25.6937 5.8904 0.4501 0 255 0
25.7026 5.9192 0.4501 0 255 0
25.7114 5.9481 0.4501 0 255 0
25.7202 5.9769 0.4501 0 255 0
25.7291 6.0057 0.4501 0 255 0
25.7379 6.0346 0.4501 0 255 0
25.7468 6.0634 0.4501 0 255 0
25.7556 6.0923 0.4501 0 255 0
25.7644 6.1211 0.4501 0 255 0
25.7733 6.1500 0.4501 0 255 0
25.7821 6.1788 0.4501 0 255 0
25.7910 6.2077 0.4501 0 255 0
25.7998 6.2365 0.4501 0 255 0
25.8086 6.2654 0.4501 0 255 0
25.8175 6.2942 0.4501 0 255 0
25.8263 6.3231 0.4501 0 255 0
25.8352 6.3519 0.4501 0 255 0
25.8440 6.3807 0.4501 0 255 0
25.8528 6.4096 0.4501 0 255 0
25.8617 6.4384 0.4501 0 255 0
25.8705 6.4673 0.4501 0 255 0
25.8794 6.4961 0.4501 0 255 0
25.8882 6.5250 0.4501 0 255 0
25.8970 6.5538 0.4501 0 255 0
25.9059 6.5827 0.4501 0 255 0
25.9147 6.6115 0.4501 0 255 0
25.9235 6.6404 0.4501 0 255 0
25.9324 6.6692 0.4501 0 255 0
25.9412 6.6980 0.4501 0 255 0
25.9501 6.7269 0.4501 0 255 0
25.9589 6.7557 0.4501 0 255 0
25.9677 6.7846 0.4501 0 255 0
25.9766 6.8134 0.4501 0 255 0
25.9854 6.8423 0.4501 0 255 0
25.9943 6.8711 0.4501 0 255 0
26.0031 6.9000 0.4501 0 255 0
26.0119 6.9288 0.4501 0 255 0
26.0208 6.9577 0.4501 0 255 0
26.0296 6.9865 0.4501 0 255 0
26.0385 7.0154 0.4501 0 255 0
26.0473 7.0442 0.4501 0 255 0
26.0561 7.0730 0.4501 0 255 0
26.0650 7.1019 0.4501 0 255 0
26.0738 7.1307 0.4501 0 255 0
26.0826 7.1596 0.4501 0 255 0
26.0915 7.1884 0.4501 0 255 0
26.1003 7.2173 0.4501 0 255 0
26.1092 7.2461 0.4501 0 255 0
26.1180 7.2750 0.4501 0 255 0
26.1268 7.3038 0.4501 0 255 0
26.1357 7.3327 0.4501 0 255 0
26.1445 7.3615 0.4501 0 255 0
26.1534 7.3903 0.4501 0 255 0
26.1622 7.4192 0.4501 0 255 0
26.1710 7.4480 0.4501 0 255 0
26.1799 7.4769 0.4501 0 255 0
26.1887 7.5057 0.4501 0 255 0
26.1976 7.5346 0.4501 0 255 0
26.2064 7.5634 0.4501 0 255 0
26.2152 7.5923 0.4501 0 255 0
26.2241 7.6211 0.4501 0 255 0
26.2329 7.6500 0.4501 0 255 0
26.2418 7.6788 0.4501 0 255 0
26.2506 7.7077 0.4501 0 255 0
26.2594 7.7365 0.4501 0 255 0
26.2683 7.7653 0.4501 0 255 0
26.2771 7.7942 0.4501 0 255 0
26.2859 7.8230 0.4501 0 255 0
26.2948 7.8519 0.4501 0 255 0
26.3036 7.8807 0.4501 0 255 0
26.3125 7.9096 0.4501 0 255 0
26.3213 7.9384 0.4501 0 255 0
26.3301 7.9673 0.4501 0 255 0
26.3390 7.9961 0.4501 0 255 0
26.3478 8.0250 0.4501 0 255 0
26.3567 8.0538 0.4501 0 255 0
26.3567 8.0538 0.4501 0 255 0
26.3444 8.0576 0.4501 0 255 0
26.3321 8.0613 0.4501 0 255 0
26.3198 8.0651 0.4501 0 255 0
26.3075 8.0689 0.4501 0 255 0
26.2952 8.0726 0.4501 0 255 0
26.2829 8.0764 0.4501 0 255 0
26.2706 8.0802 0.4501 0 255 0
26.2583 8.0839 0.4501 0 255 0
26.2460 8.0877 0.4501 0 255 0
26.2338 8.0915 0.4501 0 255 0
26.2215 8.0952 0.4501 0 255 0
26.2092 8.0990 0.4501 0 255 0
26.1969 8.1028 0.4501 0 255 0
26.1846 8.1065 0.4501 0 255 0
26.1723 8.1103 0.4501 0 255 0
26.1600 8.1141 0.4501 0 255 0
26.1477 8.1178 0.4501 0 255 0
26.1354 8.1216 0.4501 0 255 0
26.1231 8.1254 0.4501 0 255 0
26.1108 8.1291 0.4501 0 255 0
26.0986 8.1329 0.4501 0 255 0
26.0863 8.1367 0.4501 0 255 0
26.0740 8.1404 0.4501 0 255 0
26.0617 8.1442 0.4501 0 255 0
26.0494 8.1480 0.4501 0 255 0
26.0371 8.1517 0.4501 0 255 0
26.0248 8.1555 0.4501 0 255 0
26.0125 8.1593 0.4501 0 255 0
26.0002 8.1630 0.4501 0 255 0
25.9879 8.1668 0.4501 0 255 0
25.9757 8.1706 0.4501 0 255 0
25.9634 8.1743 0.4501 0 255 0
25.9511 8.1781 0.4501 0 255 0
25.9388 8.1818 0.4501 0 255 0
25.9265 8.1856 0.4501 0 255 0
25.9142 8.1894 0.4501 0 255 0
25.9019 8.1931 0.4501 0 255 0
25.8896 8.1969 0.4501 0 255 0
25.8773 8.2007 0.4501 0 255 0
25.8650 8.2044 0.4501 0 255 0
25.8527 8.2082 0.4501 0 255 0
25.8405 8.2120 0.4501 0 255 0
25.8282 8.2157 0.4501 0 255 0
25.8159 8.2195 0.4501 0 255 0
25.8036 8.2233 0.4501 0 255 0
25.7913 8.2270 0.4501 0 255 0
25.7790 8.2308 0.4501 0 255 0
25.7667 8.2346 0.4501 0 255 0
25.7544 8.2383 0.4501 0 255 0
25.7421 8.2421 0.4501 0 255 0
25.7298 8.2459 0.4501 0 255 0
25.7176 8.2496 0.4501 0 255 0
25.7053 8.2534 0.4501 0 255 0
25.6930 8.2572 0.4501 0 255 0
25.6807 8.2609 0.4501 0 255 0
25.6684 8.2647 0.4501 0 255 0
25.6561 8.2685 0.4501 0 255 0
25.6438 8.2722 0.4501 0 255 0
25.6315 8.2760 0.4501 0 255 0
25.6192 8.2798 0.4501 0 255 0
25.6069 8.2835 0.4501 0 255 0
25.5946 8.2873 0.4501 0 255 0
25.5824 8.2911 0.4501 0 255 0
25.5701 8.2948 0.4501 0 255 0
25.5578 8.2986 0.4501 0 255 0
25.5455 8.3024 0.4501 0 255 0
25.5332 8.3061 0.4501 0 255 0
25.5209 8.3099 0.4501 0 255 0
25.5086 8.3137 0.4501 0 255 0
25.4963 8.3174 0.4501 0 255 0
25.4840 8.3212 0.4501 0 255 0
25.4717 8.3250 0.4501 0 255 0
25.4595 8.3287 0.4501 0 255 0
25.4472 8.3325 0.4501 0 255 0
25.4349 8.3363 0.4501 0 255 0
25.4226 8.3400 0.4501 0 255 0
25.4103 8.3438 0.4501 0 255 0
25.3980 8.3476 0.4501 0 255 0
25.3857 8.3513 0.4501 0 255 0
25.3734 8.3551 0.4501 0 255 0
25.3611 8.3589 0.4501 0 255 0
25.3488 8.3626 0.4501 0 255 0
25.3365 8.3664 0.4501 0 255 0
25.3243 8.3702 0.4501 0 255 0
25.3120 8.3739 0.4501 0 255 0
25.2997 8.3777 0.4501 0 255 0
25.2874 8.3815 0.4501 0 255 0
25.2751 8.3852 0.4501 0 255 0
25.2628 8.3890 0.4501 0 255 0
25.2505 8.3927 0.4501 0 255 0
25.2382 8.3965 0.4501 0 255 0
25.2259 8.4003 0.4501 0 255 0
25.2136 8.4040 0.4501 0 255 0
25.2014 8.4078 0.4501 0 255 0
25.1891 8.4116 0.4501 0 255 0
25.1768 8.4153 0.4501 0 255 0
25.1645 8.4191 0.4501 0 255 0
25.1522 8.4229 0.4501 0 255 0
25.1399 8.4266 0.4501 0 255 0
25.1276 8.4304 0.4501 0 255 0
25.1153 8.4342 0.4501 0 255 0
25.1030 8.4379 0.4501 0 255 0
25.0907 8.4417 0.4501 0 255 0
25.0784 8.4455 0.4501 0 255 0
25.0662 8.4492 0.4501 0 255 0
25.0539 8.4530 0.4501 0 255 0
25.0416 8.4568 0.4501 0 255 0
25.0293 8.4605 0.4501 0 255 0
25.0170 8.4643 0.4501 0 255 0
25.0047 8.4681 0.4501 0 255 0
24.9924 8.4718 0.4501 0 255 0
24.9801 8.4756 0.4501 0 255 0
24.9678 8.4794 0.4501 0 255 0
24.9555 8.4831 0.4501 0 255 0
24.9433 8.4869 0.4501 0 255 0
24.9310 8.4907 0.4501 0 255 0
24.9187 8.4944 0.4501 0 255 0
24.9064 8.4982 0.4501 0 255 0
24.8941 8.5020 0.4501 0 255 0
24.8818 8.5057 0.4501 0 255 0
24.8695 8.5095 0.4501 0 255 0
24.8572 8.5133 0.4501 0 255 0
24.8449 8.5170 0.4501 0 255 0
24.8326 8.5208 0.4501 0 255 0
24.8203 8.5246 0.4501 0 255 0
24.8081 8.5283 0.4501 0 255 0
24.7958 8.5321 0.4501 0 255 0
24.7835 8.5359 0.4501 0 255 0
24.7712 8.5396 0.4501 0 255 0
24.7589 8.5434 0.4501 0 255 0
24.7466 8.5472 0.4501 0 255 0
24.7343 8.5509 0.4501 0 255 0
24.7220 8.5547 0.4501 0 255 0
24.7097 8.5585 0.4501 0 255 0
24.6974 8.5622 0.4501 0 255 0
24.6852 8.5660 0.4501 0 255 0
24.6729 8.5698 0.4501 0 255 0
24.6606 8.5735 0.4501 0 255 0
24.6483 8.5773 0.4501 0 255 0
24.6360 8.5811 0.4501 0 255 0
24.6237 8.5848 0.4501 0 255 0
24.6114 8.5886 0.4501 0 255 0
24.5991 8.5924 0.4501 0 255 0
24.5868 8.5961 0.4501 0 255 0
24.5745 8.5999 0.4501 0 255 0
24.5622 8.6037 0.4501 0 255 0
24.5500 8.6074 0.4501 0 255 0
24.5377 8.6112 0.4501 0 255 0
24.5254 8.6149 0.4501 0 255 0
24.5131 8.6187 0.4501 0 255 0
24.5008 8.6225 0.4501 0 255 0
24.4885 8.6262 0.4501 0 255 0
24.4762 8.6300 0.4501 0 255 0
24.4639 8.6338 0.4501 0 255 0
24.4516 8.6375 0.4501 0 255 0
24.4393 8.6413 0.4501 0 255 0
24.4271 8.6451 0.4501 0 255 0
24.4148 8.6488 0.4501 0 255 0
24.4025 8.6526 0.4501 0 255 0
24.3902 8.6564 0.4501 0 255 0
24.3779 8.6601 0.4501 0 255 0
24.3656 8.6639 0.4501 0 255 0
24.3533 8.6677 0.4501 0 255 0
24.3410 8.6714 0.4501 0 255 0
24.3287 8.6752 0.4501 0 255 0
24.3287 8.6752 2.0471 0 255 0
24.3199 8.6464 2.0471 0 255 0
24.3111 8.6175 2.0471 0 255 0
24.3022 8.5887 2.0471 0 255 0
24.2934 8.5598 2.0471 0 255 0
24.2845 8.5310 2.0471 0 255 0
24.2757 8.5021 2.0471 0 255 0
24.2669 8.4733 2.0471 0 255 0
24.2580 8.4444 2.0471 0 255 0
24.2492 8.4156 2.0471 0 255 0
24.2403 8.3867 2.0471 0 255 0
24.2315 8.3579 2.0471 0 255 0
24.2227 8.3291 2.0471 0 255 0
24.2138 8.3002 2.0471 0 255 0
24.2050 8.2714 2.0471 0 255 0
24.1961 8.2425 2.0471 0 255 0
24.1873 8.2137 2.0471 0 255 0
24.1785 8.1848 2.0471 0 255 0
24.1696 8.1560 2.0471 0 255 0
24.1608 8.1271 2.0471 0 255 0
24.1519 8.0983 2.0471 0 255 0
24.1431 8.0694 2.0471 0 255 0
24.1343 8.0406 2.0471 0 255 0
24.1254 8.0118 2.0471 0 255 0
24.1166 7.9829 2.0471 0 255 0
24.1078 7.9541 2.0471 0 255 0
24.0989 7.9252 2.0471 0 255 0
24.0901 7.8964 2.0471 0 255 0
24.0812 7.8675 2.0471 0 255 0
24.0724 7.8387 2.0471 0 255 0
24.0636 7.8098 2.0471 0 255 0
24.0547 7.7810 2.0471 0 255 0
24.0459 7.7521 2.0471 0 255 0
24.0370 7.7233 2.0471 0 255 0
24.0282 7.6944 2.0471 0 255 0
24.0194 7.6656 2.0471 0 255 0
24.0105 7.6368 2.0471 0 255 0
24.0017 7.6079 2.0471 0 255 0
23.9928 7.5791 2.0471 0 255 0
23.9840 7.5502 2.0471 0 255 0
23.9752 7.5214 2.0471 0 255 0
23.9663 7.4925 2.0471 0 255 0
23.9575 7.4637 2.0471 0 255 0
23.9487 7.4348 2.0471 0 255 0
23.9398 7.4060 2.0471 0 255 0
23.9310 7.3771 2.0471 0 255 0
23.9221 7.3483 2.0471 0 255 0
23.9133 7.3195 2.0471 0 255 0
23.9045 7.2906 2.0471 0 255 0
23.8956 7.2618 2.0471 0 255 0
23.8868 7.2329 2.0471 0 255 0
23.8779 7.2041 2.0471 0 255 0
23.8691 7.1752 2.0471 0 255 0
23.8603 7.1464 2.0471 0 255 0
23.8514 7.1175 2.0471 0 255 0
23.8426 7.0887 2.0471 0 255 0
23.8337 7.0598 2.0471 0 255 0
23.8249 7.0310 2.0471 0 255 0
23.8161 7.0021 2.0471 0 255 0
23.8072 6.9733 2.0471 0 255 0
23.7984 6.9445 2.0471 0 255 0
23.7896 6.9156 2.0471 0 255 0
23.7807 6.8868 2.0471 0 255 0
23.7719 6.8579 2.0471 0 255 0
23.7630 6.8291 2.0471 0 255 0
23.7542 6.8002 2.0471 0 255 0
23.7454 6.7714 2.0471 0 255 0
23.7365 6.7425 2.0471 0 255 0
23.7277 6.7137 2.0471 0 255 0
23.7188 6.6848 2.0471 0 255 0
23.7100 6.6560 2.0471 0 255 0
23.7012 6.6272 2.0471 0 255 0
23.6923 6.5983 2.0471 0 255 0
23.6835 6.5695 2.0471 0 255 0
23.6746 6.5406 2.0471 0 255 0
23.6658 6.5118 2.0471 0 255 0
23.6570 6.4829 2.0471 0 255 0
23.6481 6.4541 2.0471 0 255 0
23.6393 6.4252 2.0471 0 255 0
23.6304 6.3964 2.0471 0 255 0
23.6216 6.3675 2.0471 0 255 0
23.6128 6.3387 2.0471 0 255 0
23.6039 6.3098 2.0471 0 255 0
23.5951 6.2810 2.0471 0 255 0
23.5863 6.2522 2.0471 0 255 0
23.5774 6.2233 2.0471 0 255 0
23.5686 6.1945 2.0471 0 255 0
23.5597 6.1656 2.0471 0 255 0
23.5509 6.1368 2.0471 0 255 0
23.5421 6.1079 2.0471 0 255 0
23.5332 6.0791 2.0471 0 255 0
23.5244 6.0502 2.0471 0 255 0
23.5155 6.0214 2.0471 0 255 0
23.5067 5.9925 2.0471 0 255 0
23.4979 5.9637 2.0471 0 255 0
23.4890 5.9349 2.0471 0 255 0
23.4802 5.9060 2.0471 0 255 0
23.4713 5.8772 2.0471 0 255 0
23.4625 5.8483 2.0471 0 255 0
23.4537 5.8195 2.0471 0 255 0
23.4448 5.7906 2.0471 0 255 0
23.4360 5.7618 2.0471 0 255 0
23.4272 5.7329 2.0471 0 255 0
23.4183 5.7041 2.0471 0 255 0
23.4095 5.6752 2.0471 0 255 0
23.4006 5.6464 2.0471 0 255 0
23.3918 5.6175 2.0471 0 255 0
23.3830 5.5887 2.0471 0 255 0
23.3741 5.5599 2.0471 0 255 0
23.3653 5.5310 2.0471 0 255 0
23.3564 5.5022 2.0471 0 255 0
23.3476 5.4733 2.0471 0 255 0
23.3388 5.4445 2.0471 0 255 0
23.3299 5.4156 2.0471 0 255 0
23.3211 5.3868 2.0471 0 255 0
23.3122 5.3579 2.0471 0 255 0
23.3034 5.3291 2.0471 0 255 0
23.2946 5.3002 2.0471 0 255 0
23.2857 5.2714 2.0471 0 255 0
23.2769 5.2426 2.0471 0 255 0
23.2680 5.2137 2.0471 0 255 0
23.2592 5.1849 2.0471 0 255 0
23.2504 5.1560 2.0471 0 255 0
23.2415 5.1272 2.0471 0 255 0
23.2327 5.0983 2.0471 0 255 0
23.2239 5.0695 2.0471 0 255 0
23.2150 5.0406 2.0471 0 255 0
23.2062 5.0118 2.0471 0 255 0
23.1973 4.9829 2.0471 0 255 0
23.1885 4.9541 2.0471 0 255 0
23.1797 4.9252 2.0471 0 255 0
23.1708 4.8964 2.0471 0 255 0
23.1620 4.8676 2.0471 0 255 0
23.1531 4.8387 2.0471 0 255 0
23.1443 4.8099 2.0471 0 255 0
23.1355 4.7810 2.0471 0 255 0
23.1266 4.7522 2.0471 0 255 0
23.1178 4.7233 2.0471 0 255 0
23.1089 4.6945 2.0471 0 255 0
23.1001 4.6656 2.0471 0 255 0
23.0913 4.6368 2.0471 0 255 0
23.0824 4.6079 2.0471 0 255 0
23.0736 4.5791 2.0471 0 255 0
23.0648 4.5503 2.0471 0 255 0
23.0559 4.5214 2.0471 0 255 0
23.0471 4.4926 2.0471 0 255 0
23.0382 4.4637 2.0471 0 255 0
23.0294 4.4349 2.0471 0 255 0
23.0206 4.4060 2.0471 0 255 0
23.0117 4.3772 2.0471 0 255 0
23.0029 4.3483 2.0471 0 255 0
22.9940 4.3195 2.0471 0 255 0
22.9852 4.2906 2.0471 0 255 0
22.9764 4.2618 2.0471 0 255 0
22.9675 4.2329 2.0471 0 255 0
22.9587 4.2041 2.0471 0 255 0
22.9498 4.1753 2.0471 0 255 0
22.9410 4.1464 2.0471 0 255 0
22.9322 4.1176 2.0471 0 255 0
22.9233 4.0887 2.0471 0 255 0
22.9145 4.0599 2.0471 0 255 0
22.9056 4.0310 2.0471 0 255 0
22.8968 4.0022 2.0471 0 255 0
22.8880 3.9733 2.0471 0 255 0
22.8791 3.9445 2.0471 0 255 0
22.8703 3.9156 2.0471 0 255 0
22.8703 3.9156 2.0471 0 255 0
22.8826 3.9119 2.0471 0 255 0
22.8949 3.9081 2.0471 0 255 0
22.9072 3.9043 2.0471 0 255 0
22.9195 3.9006 2.0471 0 255 0
22.9317 3.8968 2.0471 0 255 0
22.9440 3.8930 2.0471 0 255 0
22.9563 3.8893 2.0471 0 255 0
22.9686 3.8855 2.0471 0 255 0
22.9809 3.8817 2.0471 0 255 0
22.9932 3.8780 2.0471 0 255 0
23.0055 3.8742 2.0471 0 255 0
23.0178 3.8704 2.0471 0 255 0
23.0301 3.8667 2.0471 0 255 0
23.0424 3.8629 2.0471 0 255 0
23.0546 3.8592 2.0471 0 255 0
23.0669 3.8554 2.0471 0 255 0
23.0792 3.8516 2.0471 0 255 0
23.0915 3.8479 2.0471 0 255 0
23.1038 3.8441 2.0471 0 255 0
23.1161 3.8403 2.0471 0 255 0
23.1284 3.8366 2.0471 0 255 0
23.1407 3.8328 2.0471 0 255 0
23.1530 3.8290 2.0471 0 255 0
23.1653 3.8253 2.0471 0 255 0
23.1776 3.8215 2.0471 0 255 0
23.1898 3.8177 2.0471 0 255 0
23.2021 3.8140 2.0471 0 255 0
23.2144 3.8102 2.0471 0 255 0
23.2267 3.8064 2.0471 0 255 0
23.2390 3.8027 2.0471 0 255 0
23.2513 3.7989 2.0471 0 255 0
23.2636 3.7951 2.0471 0 255 0
23.2759 3.7914 2.0471 0 255 0
23.2882 3.7876 2.0471 0 255 0
23.3005 3.7838 2.0471 0 255 0
23.3127 3.7801 2.0471 0 255 0
23.3250 3.7763 2.0471 0 255 0
23.3373 3.7725 2.0471 0 255 0
23.3496 3.7688 2.0471 0 255 0
23.3619 3.7650 2.0471 0 255 0
23.3742 3.7612 2.0471 0 255 0
23.3865 3.7575 2.0471 0 255 0
23.3988 3.7537 2.0471 0 255 0
23.4111 3.7499 2.0471 0 255 0
23.4234 3.7462 2.0471 0 255 0
23.4357 3.7424 2.0471 0 255 0
23.4479 3.7386 2.0471 0 255 0
23.4602 3.7349 2.0471 0 255 0
23.4725 3.7311 2.0471 0 255 0
23.4848 3.7273 2.0471 0 255 0
23.4971 3.7236 2.0471 0 255 0
23.5094 3.7198 2.0471 0 255 0
23.5217 3.7160 2.0471 0 255 0
23.5340 3.7123 2.0471 0 255 0
23.5463 3.7085 2.0471 0 255 0
23.5586 3.7047 2.0471 0 255 0
23.5709 3.7010 2.0471 0 255 0
23.5831 3.6972 2.0471 0 255 0
23.5954 3.6934 2.0471 0 255 0
23.6077 3.6897 2.0471 0 255 0
23.6200 3.6859 2.0471 0 255 0
23.6323 3.6821 2.0471 0 255 0
23.6446 3.6784 2.0471 0 255 0
23.6569 3.6746 2.0471 0 255 0
23.6692 3.6708 2.0471 0 255 0
23.6815 3.6671 2.0471 0 255 0
23.6938 3.6633 2.0471 0 255 0
23.7060 3.6595 2.0471 0 255 0
23.7183 3.6558 2.0471 0 255 0
23.7306 3.6520 2.0471 0 255 0
23.7429 3.6483 2.0471 0 255 0
23.7552 3.6445 2.0471 0 255 0
23.7675 3.6407 2.0471 0 255 0
23.7798 3.6370 2.0471 0 255 0
23.7921 3.6332 2.0471 0 255 0
23.8044 3.6294 2.0471 0 255 0
23.8167 3.6257 2.0471 0 255 0
23.8290 3.6219 2.0471 0 255 0
23.8412 3.6181 2.0471 0 255 0
23.8535 3.6144 2.0471 0 255 0
23.8658 3.6106 2.0471 0 255 0
23.8781 3.6068 2.0471 0 255 0
23.8904 3.6031 2.0471 0 255 0
23.9027 3.5993 2.0471 0 255 0
23.9150 3.5955 2.0471 0 255 0
23.9273 3.5918 2.0471 0 255 0
23.9396 3.5880 2.0471 0 255 0
23.9519 3.5842 2.0471 0 255 0
23.9641 3.5805 2.0471 0 255 0
23.9764 3.5767 2.0471 0 255 0
23.9887 3.5729 2.0471 0 255 0
24.0010 3.5692 2.0471 0 255 0
24.0133 3.5654 2.0471 0 255 0
24.0256 3.5616 2.0471 0 255 0
24.0379 3.5579 2.0471 0 255 0
24.0502 3.5541 2.0471 0 255 0
24.0625 3.5503 2.0471 0 255 0
24.0748 3.5466 2.0471 0 255 0
24.0870 3.5428 2.0471 0 255 0
24.0993 3.5390 2.0471 0 255 0
24.1116 3.5353 2.0471 0 255 0
24.1239 3.5315 2.0471 0 255 0
24.1362 3.5277 2.0471 0 255 0
24.1485 3.5240 2.0471 0 255 0
24.1608 3.5202 2.0471 0 255 0
24.1731 3.5164 2.0471 0 255 0
24.1854 3.5127 2.0471 0 255 0
24.1977 3.5089 2.0471 0 255 0
24.2100 3.5051 2.0471 0 255 0
24.2222 3.5014 2.0471 0 255 0
24.2345 3.4976 2.0471 0 255 0
24.2468 3.4938 2.0471 0 255 0
24.2591 3.4901 2.0471 0 255 0
24.2714 3.4863 2.0471 0 255 0
24.2837 3.4825 2.0471 0 255 0
24.2960 3.4788 2.0471 0 255 0
24.3083 3.4750 2.0471 0 255 0
24.3206 3.4712 2.0471 0 255 0
24.3329 3.4675 2.0471 0 255 0
24.3451 3.4637 2.0471 0 255 0
24.3574 3.4599 2.0471 0 255 0
24.3697 3.4562 2.0471 0 255 0
24.3820 3.4524 2.0471 0 255 0
24.3943 3.4486 2.0471 0 255 0
24.4066 3.4449 2.0471 0 255 0
24.4189 3.4411 2.0471 0 255 0
24.4312 3.4373 2.0471 0 255 0
24.4435 3.4336 2.0471 0 255 0
24.4558 3.4298 2.0471 0 255 0
24.4681 3.4261 2.0471 0 255 0
24.4803 3.4223 2.0471 0 255 0
24.4926 3.4185 2.0471 0 255 0
24.5049 3.4148 2.0471 0 255 0
24.5172 3.4110 2.0471 0 255 0
24.5295 3.4072 2.0471 0 255 0
24.5418 3.4035 2.0471 0 255 0
24.5541 3.3997 2.0471 0 255 0
24.5664 3.3959 2.0471 0 255 0
24.5787 3.3922 2.0471 0 255 0
24.5910 3.3884 2.0471 0 255 0
24.6033 3.3846 2.0471 0 255 0
24.6155 3.3809 2.0471 0 255 0
24.6278 3.3771 2.0471 0 255 0
24.6401 3.3733 2.0471 0 255 0
24.6524 3.3696 2.0471 0 255 0
24.6647 3.3658 2.0471 0 255 0
24.6770 3.3620 2.0471 0 255 0
24.6893 3.3583 2.0471 0 255 0
24.7016 3.3545 2.0471 0 255 0
24.7139 3.3507 2.0471 0 255 0
24.7262 3.3470 2.0471 0 255 0
24.7384 3.3432 2.0471 0 255 0
24.7507 3.3394 2.0471 0 255 0
24.7630 3.3357 2.0471 0 255 0
24.7753 3.3319 2.0471 0 255 0
24.7876 3.3281 2.0471 0 255 0
24.7999 3.3244 2.0471 0 255 0
24.8122 3.3206 2.0471 0 255 0
24.8245 3.3168 2.0471 0 255 0
24.8368 3.3131 2.0471 0 255 0
24.8491 3.3093 2.0471 0 255 0
24.8614 3.3055 2.0471 0 255 0
24.8736 3.3018 2.0471 0 255 0
24.8859 3.2980 2.0471 0 255 0
24.8982 3.2942 2.0471 0 255 0
24.8982 3.2942 2.0471 0 255 0
24.9071 3.3231 2.0471 0 255 0
24.9159 3.3519 2.0471 0 255 0
24.9247 3.3808 2.0471 0 255 0
24.9336 3.4096 2.0471 0 255 0
24.9424 3.4385 2.0471 0 255 0
24.9513 3.4673 2.0471 0 255 0
24.9601 3.4962 2.0471 0 255 0
24.9689 3.5250 2.0471 0 255 0
24.9778 3.5539 2.0471 0 255 0
24.9866 3.5827 2.0471 0 255 0
24.9955 3.6115 2.0471 0 255 0
25.0043 3.6404 2.0471 0 255 0
25.0131 3.6692 2.0471 0 255 0
25.0220 3.6981 2.0471 0 255 0
25.0308 3.7269 2.0471 0 255 0
25.0396 3.7558 2.0471 0 255 0
25.0485 3.7846 2.0471 0 255 0
25.0573 3.8135 2.0471 0 255 0
25.0662 3.8423 2.0471 0 255 0
25.0750 3.8712 2.0471 0 255 0
25.0838 3.9000 2.0471 0 255 0
25.0927 3.9288 2.0471 0 255 0
25.1015 3.9577 2.0471 0 255 0
25.1104 3.9865 2.0471 0 255 0
25.1192 4.0154 2.0471 0 255 0
25.1280 4.0442 2.0471 0 255 0
25.1369 4.0731 2.0471 0 255 0
25.1457 4.1019 2.0471 0 255 0
25.1546 4.1308 2.0471 0 255 0
25.1634 4.1596 2.0471 0 255 0
25.1722 4.1885 2.0471 0 255 0
25.1811 4.2173 2.0471 0 255 0
25.1899 4.2462 2.0471 0 255 0
25.1987 4.2750 2.0471 0 255 0
25.2076 4.3038 2.0471 0 255 0
25.2164 4.3327 2.0471 0 255 0
25.2253 4.3615 2.0471 0 255 0
25.2341 4.3904 2.0471 0 255 0
25.2429 4.4192 2.0471 0 255 0
25.2518 4.4481 2.0471 0 255 0
25.2606 4.4769 2.0471 0 255 0
25.2695 4.5058 2.0471 0 255 0
25.2783 4.5346 2.0471 0 255 0
25.2871 4.5635 2.0471 0 255 0
25.2960 4.5923 2.0471 0 255 0
25.3048 4.6211 2.0471 0 255 0
25.3137 4.6500 2.0471 0 255 0
25.3225 4.6788 2.0471 0 255 0
25.3313 4.7077 2.0471 0 255 0
25.3402 4.7365 2.0471 0 255 0
25.3490 4.7654 2.0471 0 255 0
25.3579 4.7942 2.0471 0 255 0
25.3667 4.8231 2.0471 0 255 0
25.3755 4.8519 2.0471 0 255 0
25.3844 4.8808 2.0471 0 255 0
25.3932 4.9096 2.0471 0 255 0
25.4020 4.9385 2.0471 0 255 0
25.4109 4.9673 2.0471 0 255 0
25.4197 4.9961 2.0471 0 255 0
25.4286 5.0250 2.0471 0 255 0
25.4374 5.0538 2.0471 0 255 0
25.4462 5.0827 2.0471 0 255 0
25.4551 5.1115 2.0471 0 255 0
25.4639 5.1404 2.0471 0 255 0
25.4728 5.1692 2.0471 0 255 0
25.4816 5.1981 2.0471 0 255 0
25.4904 5.2269 2.0471 0 255 0
25.4993 5.2558 2.0471 0 255 0
25.5081 5.2846 2.0471 0 255 0
25.5170 5.3134 2.0471 0 255 0
25.5258 5.3423 2.0471 0 255 0
25.5346 5.3711 2.0471 0 255 0
25.5435 5.4000 2.0471 0 255 0
25.5523 5.4288 2.0471 0 255 0
25.5611 5.4577 2.0471 0 255 0
