ply
format ascii 1.0
element vertex 1445
property float x
property float y
property float z
property uchar red
property uchar green
property uchar blue
end_header
14.1738 0.2920 -0.0212 255 200 100
28.2682 -14.1753 5.5854 255 200 100
16.8595 9.4086 3.7231 255 200 100
11.4038 4.4747 0.0187 255 200 100
25.6698 -5.3258 0.0955 255 200 100
30.1196 -8.6430 4.0272 255 200 100
39.2324 10.6027 1.0253 255 200 100
8.8674 -3.2884 -0.1798 255 200 100
8.8964 -1.8006 -0.0987 255 200 100
14.7473 -5.7286 -0.2207 255 200 100
7.3227 -0.4003 -0.0089 255 200 100
13.5388 3.8626 0.0219 255 200 100
11.4166 4.4081 0.0196 255 200 100
24.4104 -0.0538 0.2083 255 200 100
25.3471 -4.9622 0.7017 255 200 100
7.2449 0.1639 0.0167 255 200 100
36.3783 8.7955 6.2058 255 200 100
29.3597 -13.9342 2.7097 255 200 100
17.3581 -2.3442 -0.0949 255 200 100
30.4953 3.3183 3.2594 255 200 100
16.8528 9.5285 3.7315 255 200 100
11.8509 2.2650 0.0205 255 200 100
26.7443 -2.6536 3.0633 255 200 100
7.2918 -0.1736 0.0027 255 200 100
27.9150 -0.7114 1.2224 255 200 100
8.9084 -3.0877 -0.1745 255 200 100
36.7869 13.0809 2.8886 255 200 100
8.1152 -2.3055 -0.1317 255 200 100
15.1476 -3.3189 -0.2006 255 200 100
28.1994 -14.5523 4.1553 255 200 100
7.3984 -1.3424 -0.0615 255 200 100
30.1800 2.9830 1.1830 255 200 100
37.0382 13.8906 2.9153 255 200 100
14.1602 7.2438 0.1804 255 200 100
25.3804 -4.8282 2.4445 255 200 100
15.5321 8.9096 2.3834 255 200 100
43.4285 11.3827 5.0451 255 200 100
10.3336 2.7790 0.0124 255 200 100
25.3482 9.6078 1.3468 255 200 100
16.3586 9.3179 4.5353 255 200 100
28.9843 -11.9713 6.2365 255 200 100
10.9951 -1.3109 -0.0757 255 200 100
12.0994 0.7791 0.0006 255 200 100
37.9496 13.4473 4.7645 255 200 100
7.2262 -2.9669 -0.1390 255 200 100
29.7032 -13.0945 0.4816 255 200 100
30.8438 -9.4182 1.9027 255 200 100
7.7942 0.9933 0.0190 255 200 100
19.4108 9.1883 1.9722 255 200 100
9.7701 -0.7839 -0.0530 255 200 100
30.1392 -11.8761 2.6700 255 200 100
9.7603 4.6770 0.0175 255 200 100
12.4619 -0.8896 -0.0630 255 200 100
26.8787 -2.3580 2.4609 255 200 100
29.1020 1.2286 1.2004 255 200 100
13.3913 4.3845 0.0277 255 200 100
20.7279 -8.3311 -0.1018 255 200 100
28.3333 -14.0104 5.5799 255 200 100
16.5062 2.8296 0.0096 255 200 100
20.7967 -6.0040 -0.0656 255 200 100
9.7835 4.6234 0.0168 255 200 100
15.5413 6.6858 0.8038 255 200 100
11.9762 1.6231 0.0119 255 200 100
30.6384 -10.1212 1.1763 255 200 100
28.5820 -13.3380 4.8353 255 200 100
15.6523 8.9202 1.1791 255 200 100
31.0201 -6.5093 6.2090 255 200 100
7.2247 0.4996 0.0188 255 200 100
16.0380 8.9508 0.3371 255 200 100
8.5592 0.8700 0.0143 255 200 100
16.2773 8.9723 0.3160 255 200 100
25.8531 -7.8470 0.0619 255 200 100
20.1375 1.8753 0.0509 255 200 100
35.5030 10.1728 2.7920 255 200 100
8.2602 2.4291 0.0236 255 200 100
8.7570 4.0406 0.0161 255 200 100
12.6380 -5.5119 -0.2416 255 200 100
14.3597 -6.5099 -0.2012 255 200 100
29.1017 -14.8467 1.2458 255 200 100
15.6553 5.8521 0.0548 255 200 100
29.9192 -9.1314 6.1798 255 200 100
24.4638 -0.1941 0.2043 255 200 100
17.2313 9.3763 3.7486 255 200 100
11.7711 6.2033 0.1743 255 200 100
24.3711 -4.0844 0.7476 255 40 40
24.4307 -4.0859 0.7476 255 40 40
24.4903 -4.0874 0.7476 255 40 40
24.5499 -4.0890 0.7476 255 40 40
24.6096 -4.0905 0.7476 255 40 40
24.6692 -4.0920 0.7476 255 40 40
24.7288 -4.0935 0.7476 255 40 40
24.7884 -4.0951 0.7476 255 40 40
24.8481 -4.0966 0.7476 255 40 40
24.9077 -4.0981 0.7476 255 40 40
24.9673 -4.0996 0.7476 255 40 40
25.0269 -4.1012 0.7476 255 40 40
25.0866 -4.1027 0.7476 255 40 40
25.1462 -4.1042 0.7476 255 40 40
25.2058 -4.1057 0.7476 255 40 40
25.2654 -4.1073 0.7476 255 40 40
25.3250 -4.1088 0.7476 255 40 40
25.3847 -4.1103 0.7476 255 40 40
25.4443 -4.1118 0.7476 255 40 40
25.5039 -4.1134 0.7476 255 40 40
25.5635 -4.1149 0.7476 255 40 40
25.6232 -4.1164 0.7476 255 40 40
25.6828 -4.1179 0.7476 255 40 40
25.7424 -4.1195 0.7476 255 40 40
25.8020 -4.1210 0.7476 255 40 40
25.8617 -4.1225 0.7476 255 40 40
25.9213 -4.1240 0.7476 255 40 40
25.9809 -4.1256 0.7476 255 40 40
26.0405 -4.1271 0.7476 255 40 40
26.1002 -4.1286 0.7476 255 40 40
26.1598 -4.1302 0.7476 255 40 40
26.2194 -4.1317 0.7476 255 40 40
26.2790 -4.1332 0.7476 255 40 40
26.3387 -4.1347 0.7476 255 40 40
26.3983 -4.1363 0.7476 255 40 40
26.4579 -4.1378 0.7476 255 40 40
26.5175 -4.1393 0.7476 255 40 40
26.5772 -4.1408 0.7476 255 40 40
26.6368 -4.1424 0.7476 255 40 40
26.6964 -4.1439 0.7476 255 40 40
26.7560 -4.1454 0.7476 255 40 40
26.8156 -4.1469 0.7476 255 40 40
26.8753 -4.1485 0.7476 255 40 40
26.9349 -4.1500 0.7476 255 40 40
26.9945 -4.1515 0.7476 255 40 40
27.0541 -4.1530 0.7476 255 40 40
27.1138 -4.1546 0.7476 255 40 40
27.1734 -4.1561 0.7476 255 40 40
27.2330 -4.1576 0.7476 255 40 40
27.2926 -4.1591 0.7476 255 40 40
27.3523 -4.1607 0.7476 255 40 40
27.4119 -4.1622 0.7476 255 40 40
27.4715 -4.1637 0.7476 255 40 40
27.5311 -4.1652 0.7476 255 40 40
27.5908 -4.1668 0.7476 255 40 40
27.6504 -4.1683 0.7476 255 40 40
27.7100 -4.1698 0.7476 255 40 40
27.7696 -4.1713 0.7476 255 40 40
27.8293 -4.1729 0.7476 255 40 40
27.8889 -4.1744 0.7476 255 40 40
27.9485 -4.1759 0.7476 255 40 40
28.0081 -4.1774 0.7476 255 40 40
28.0678 -4.1790 0.7476 255 40 40
28.1274 -4.1805 0.7476 255 40 40
28.1870 -4.1820 0.7476 255 40 40
28.2466 -4.1835 0.7476 255 40 40
28.3062 -4.1851 0.7476 255 40 40
28.3659 -4.1866 0.7476 255 40 40
28.4255 -4.1881 0.7476 255 40 40
28.4851 -4.1896 0.7476 255 40 40
28.5447 -4.1912 0.7476 255 40 40
28.6044 -4.1927 0.7476 255 40 40
28.6640 -4.1942 0.7476 255 40 40
28.7236 -4.1957 0.7476 255 40 40
28.7832 -4.1973 0.7476 255 40 40
28.8429 -4.1988 0.7476 255 40 40
28.9025 -4.2003 0.7476 255 40 40
28.9621 -4.2018 0.7476 255 40 40
29.0217 -4.2034 0.7476 255 40 40
29.0814 -4.2049 0.7476 255 40 40
29.1410 -4.2064 0.7476 255 40 40
29.2006 -4.2080 0.7476 255 40 40
29.2602 -4.2095 0.7476 255 40 40
29.3199 -4.2110 0.7476 255 40 40
29.3795 -4.2125 0.7476 255 40 40
29.4391 -4.2141 0.7476 255 40 40
29.4987 -4.2156 0.7476 255 40 40
29.5583 -4.2171 0.7476 255 40 40
29.6180 -4.2186 0.7476 255 40 40
29.6776 -4.2202 0.7476 255 40 40
29.7372 -4.2217 0.7476 255 40 40
29.7968 -4.2232 0.7476 255 40 40
29.8565 -4.2247 0.7476 255 40 40
29.9161 -4.2263 0.7476 255 40 40
29.9757 -4.2278 0.7476 255 40 40
30.0353 -4.2293 0.7476 255 40 40
30.0950 -4.2308 0.7476 255 40 40
30.1546 -4.2324 0.7476 255 40 40
30.2142 -4.2339 0.7476 255 40 40
30.2738 -4.2354 0.7476 255 40 40
30.3335 -4.2369 0.7476 255 40 40
30.3931 -4.2385 0.7476 255 40 40
30.4527 -4.2400 0.7476 255 40 40
30.5123 -4.2415 0.7476 255 40 40
30.5720 -4.2430 0.7476 255 40 40
30.6316 -4.2446 0.7476 255 40 40
30.6912 -4.2461 0.7476 255 40 40
30.7508 -4.2476 0.7476 255 40 40
30.8105 -4.2491 0.7476 255 40 40
30.8701 -4.2507 0.7476 255 40 40
30.9297 -4.2522 0.7476 255 40 40
30.9893 -4.2537 0.7476 255 40 40
31.0489 -4.2552 0.7476 255 40 40
31.1086 -4.2568 0.7476 255 40 40
31.1682 -4.2583 0.7476 255 40 40
31.2278 -4.2598 0.7476 255 40 40
31.2874 -4.2613 0.7476 255 40 40
31.3471 -4.2629 0.7476 255 40 40
31.4067 -4.2644 0.7476 255 40 40
31.4663 -4.2659 0.7476 255 40 40
31.5259 -4.2674 0.7476 255 40 40
31.5856 -4.2690 0.7476 255 40 40
31.6452 -4.2705 0.7476 255 40 40
31.7048 -4.2720 0.7476 255 40 40
31.7644 -4.2735 0.7476 255 40 40
31.8241 -4.2751 0.7476 255 40 40
31.8837 -4.2766 0.7476 255 40 40
31.9433 -4.2781 0.7476 255 40 40
32.0029 -4.2796 0.7476 255 40 40
32.0626 -4.2812 0.7476 255 40 40
32.1222 -4.2827 0.7476 255 40 40
32.1818 -4.2842 0.7476 255 40 40
32.2414 -4.2857 0.7476 255 40 40
32.3011 -4.2873 0.7476 255 40 40
32.3607 -4.2888 0.7476 255 40 40
32.4203 -4.2903 0.7476 255 40 40
32.4799 -4.2919 0.7476 255 40 40
32.5395 -4.2934 0.7476 255 40 40
32.5992 -4.2949 0.7476 255 40 40
32.6588 -4.2964 0.7476 255 40 40
32.7184 -4.2980 0.7476 255 40 40
32.7780 -4.2995 0.7476 255 40 40
32.8377 -4.3010 0.7476 255 40 40
32.8973 -4.3025 0.7476 255 40 40
32.9569 -4.3041 0.7476 255 40 40
33.0165 -4.3056 0.7476 255 40 40
33.0762 -4.3071 0.7476 255 40 40
33.1358 -4.3086 0.7476 255 40 40
33.1954 -4.3102 0.7476 255 40 40
33.2550 -4.3117 0.7476 255 40 40
33.3147 -4.3132 0.7476 255 40 40
33.3743 -4.3147 0.7476 255 40 40
33.4339 -4.3163 0.7476 255 40 40
33.4935 -4.3178 0.7476 255 40 40
33.5532 -4.3193 0.7476 255 40 40
33.6128 -4.3208 0.7476 255 40 40
33.6724 -4.3224 0.7476 255 40 40
33.7320 -4.3239 0.7476 255 40 40
33.7917 -4.3254 0.7476 255 40 40
33.8513 -4.3269 0.7476 255 40 40
33.9109 -4.3285 0.7476 255 40 40
33.9705 -4.3300 0.7476 255 40 40
34.0301 -4.3315 0.7476 255 40 40
34.0898 -4.3330 0.7476 255 40 40
34.1494 -4.3346 0.7476 255 40 40
34.2090 -4.3361 0.7476 255 40 40
34.2090 -4.3361 0.7476 255 40 40
34.2095 -4.3187 0.7476 255 40 40
34.2099 -4.3013 0.7476 255 40 40
34.2104 -4.2839 0.7476 255 40 40
34.2108 -4.2665 0.7476 255 40 40
34.2112 -4.2491 0.7476 255 40 40
34.2117 -4.2317 0.7476 255 40 40
34.2121 -4.2143 0.7476 255 40 40
34.2126 -4.1969 0.7476 255 40 40
34.2130 -4.1795 0.7476 255 40 40
34.2135 -4.1621 0.7476 255 40 40
34.2139 -4.1447 0.7476 255 40 40
34.2144 -4.1273 0.7476 255 40 40
34.2148 -4.1099 0.7476 255 40 40
34.2153 -4.0925 0.7476 255 40 40
34.2157 -4.0751 0.7476 255 40 40
34.2161 -4.0577 0.7476 255 40 40
34.2166 -4.0403 0.7476 255 40 40
34.2170 -4.0229 0.7476 255 40 40
34.2175 -4.0055 0.7476 255 40 40
34.2179 -3.9881 0.7476 255 40 40
34.2184 -3.9707 0.7476 255 40 40
34.2188 -3.9533 0.7476 255 40 40
34.2193 -3.9359 0.7476 255 40 40
34.2197 -3.9185 0.7476 255 40 40
34.2201 -3.9010 0.7476 255 40 40
34.2206 -3.8836 0.7476 255 40 40
34.2210 -3.8662 0.7476 255 40 40
34.2215 -3.8488 0.7476 255 40 40
34.2219 -3.8314 0.7476 255 40 40
34.2224 -3.8140 0.7476 255 40 40
34.2228 -3.7966 0.7476 255 40 40
34.2233 -3.7792 0.7476 255 40 40
34.2237 -3.7618 0.7476 255 40 40
34.2242 -3.7444 0.7476 255 40 40
34.2246 -3.7270 0.7476 255 40 40
34.2250 -3.7096 0.7476 255 40 40
34.2255 -3.6922 0.7476 255 40 40
34.2259 -3.6748 0.7476 255 40 40
34.2264 -3.6574 0.7476 255 40 40
34.2268 -3.6400 0.7476 255 40 40
34.2273 -3.6226 0.7476 255 40 40
34.2277 -3.6052 0.7476 255 40 40
34.2282 -3.5878 0.7476 255 40 40
34.2286 -3.5704 0.7476 255 40 40
34.2291 -3.5530 0.7476 255 40 40
34.2295 -3.5356 0.7476 255 40 40
34.2299 -3.5182 0.7476 255 40 40
34.2304 -3.5008 0.7476 255 40 40
34.2308 -3.4834 0.7476 255 40 40
34.2313 -3.4660 0.7476 255 40 40
34.2317 -3.4486 0.7476 255 40 40
34.2322 -3.4312 0.7476 255 40 40
34.2326 -3.4138 0.7476 255 40 40
34.2331 -3.3964 0.7476 255 40 40
34.2335 -3.3790 0.7476 255 40 40
34.2340 -3.3616 0.7476 255 40 40
34.2344 -3.3442 0.7476 255 40 40
34.2348 -3.3268 0.7476 255 40 40
34.2353 -3.3094 0.7476 255 40 40
34.2357 -3.2920 0.7476 255 40 40
34.2362 -3.2746 0.7476 255 40 40
34.2366 -3.2572 0.7476 255 40 40
34.2371 -3.2398 0.7476 255 40 40
34.2375 -3.2224 0.7476 255 40 40
34.2380 -3.2050 0.7476 255 40 40
34.2384 -3.1876 0.7476 255 40 40
34.2388 -3.1702 0.7476 255 40 40
34.2393 -3.1528 0.7476 255 40 40
34.2397 -3.1354 0.7476 255 40 40
34.2402 -3.1180 0.7476 255 40 40
34.2406 -3.1006 0.7476 255 40 40
34.2411 -3.0832 0.7476 255 40 40
34.2415 -3.0658 0.7476 255 40 40
34.2420 -3.0484 0.7476 255 40 40
34.2424 -3.0310 0.7476 255 40 40
34.2429 -3.0136 0.7476 255 40 40
34.2433 -2.9962 0.7476 255 40 40
34.2437 -2.9788 0.7476 255 40 40
34.2442 -2.9614 0.7476 255 40 40
34.2446 -2.9440 0.7476 255 40 40
34.2451 -2.9266 0.7476 255 40 40
34.2455 -2.9092 0.7476 255 40 40
34.2460 -2.8918 0.7476 255 40 40
34.2464 -2.8743 0.7476 255 40 40
34.2469 -2.8569 0.7476 255 40 40
34.2473 -2.8395 0.7476 255 40 40
34.2478 -2.8221 0.7476 255 40 40
34.2482 -2.8047 0.7476 255 40 40
34.2486 -2.7873 0.7476 255 40 40
34.2491 -2.7699 0.7476 255 40 40
34.2495 -2.7525 0.7476 255 40 40
34.2500 -2.7351 0.7476 255 40 40
34.2504 -2.7177 0.7476 255 40 40
34.2509 -2.7003 0.7476 255 40 40
34.2513 -2.6829 0.7476 255 40 40
34.2518 -2.6655 0.7476 255 40 40
34.2522 -2.6481 0.7476 255 40 40
34.2526 -2.6307 0.7476 255 40 40
34.2531 -2.6133 0.7476 255 40 40
34.2535 -2.5959 0.7476 255 40 40
34.2540 -2.5785 0.7476 255 40 40
34.2544 -2.5611 0.7476 255 40 40
34.2549 -2.5437 0.7476 255 40 40
34.2553 -2.5263 0.7476 255 40 40
34.2558 -2.5089 0.7476 255 40 40
34.2562 -2.4915 0.7476 255 40 40
34.2567 -2.4741 0.7476 255 40 40
34.2571 -2.4567 0.7476 255 40 40
34.2575 -2.4393 0.7476 255 40 40
34.2580 -2.4219 0.7476 255 40 40
34.2584 -2.4045 0.7476 255 40 40
34.2589 -2.3871 0.7476 255 40 40
34.2593 -2.3697 0.7476 255 40 40
34.2598 -2.3523 0.7476 255 40 40
34.2602 -2.3349 0.7476 255 40 40
34.2607 -2.3175 0.7476 255 40 40
34.2611 -2.3001 0.7476 255 40 40
34.2616 -2.2827 0.7476 255 40 40
34.2620 -2.2653 0.7476 255 40 40
34.2624 -2.2479 0.7476 255 40 40
34.2629 -2.2305 0.7476 255 40 40
34.2633 -2.2131 0.7476 255 40 40
34.2638 -2.1957 0.7476 255 40 40
34.2642 -2.1783 0.7476 255 40 40
34.2647 -2.1609 0.7476 255 40 40
34.2651 -2.1435 0.7476 255 40 40
34.2656 -2.1261 0.7476 255 40 40
34.2660 -2.1087 0.7476 255 40 40
34.2664 -2.0913 0.7476 255 40 40
34.2669 -2.0739 0.7476 255 40 40
34.2673 -2.0565 0.7476 255 40 40
34.2678 -2.0391 0.7476 255 40 40
34.2682 -2.0217 0.7476 255 40 40
34.2687 -2.0043 0.7476 255 40 40
34.2691 -1.9869 0.7476 255 40 40
34.2696 -1.9695 0.7476 255 40 40
34.2700 -1.9521 0.7476 255 40 40
34.2705 -1.9347 0.7476 255 40 40
34.2709 -1.9173 0.7476 255 40 40
34.2713 -1.8999 0.7476 255 40 40
34.2718 -1.8825 0.7476 255 40 40
34.2722 -1.8651 0.7476 255 40 40
34.2727 -1.8476 0.7476 255 40 40
34.2731 -1.8302 0.7476 255 40 40
34.2736 -1.8128 0.7476 255 40 40
34.2740 -1.7954 0.7476 255 40 40
34.2745 -1.7780 0.7476 255 40 40
34.2749 -1.7606 0.7476 255 40 40
34.2754 -1.7432 0.7476 255 40 40
34.2758 -1.7258 0.7476 255 40 40
34.2762 -1.7084 0.7476 255 40 40
34.2767 -1.6910 0.7476 255 40 40
34.2771 -1.6736 0.7476 255 40 40
34.2776 -1.6562 0.7476 255 40 40
34.2780 -1.6388 0.7476 255 40 40
34.2785 -1.6214 0.7476 255 40 40
34.2789 -1.6040 0.7476 255 40 40
34.2794 -1.5866 0.7476 255 40 40
34.2798 -1.5692 0.7476 255 40 40
34.2803 -1.5518 0.7476 255 40 40
34.2807 -1.5344 0.7476 255 40 40
34.2811 -1.5170 0.7476 255 40 40
34.2816 -1.4996 0.7476 255 40 40
34.2820 -1.4822 0.7476 255 40 40
34.2825 -1.4648 0.7476 255 40 40
34.2825 -1.4648 0.7476 255 40 40
34.2229 -1.4633 0.7476 255 40 40
34.1632 -1.4618 0.7476 255 40 40
34.1036 -1.4602 0.7476 255 40 40
34.0440 -1.4587 0.7476 255 40 40
33.9844 -1.4572 0.7476 255 40 40
33.9247 -1.4557 0.7476 255 40 40
33.8651 -1.4541 0.7476 255 40 40
33.8055 -1.4526 0.7476 255 40 40
33.7459 -1.4511 0.7476 255 40 40
33.6862 -1.4496 0.7476 255 40 40
33.6266 -1.4480 0.7476 255 40 40
33.5670 -1.4465 0.7476 255 40 40
33.5074 -1.4450 0.7476 255 40 40
33.4477 -1.4435 0.7476 255 40 40
33.3881 -1.4419 0.7476 255 40 40
33.3285 -1.4404 0.7476 255 40 40
33.2689 -1.4389 0.7476 255 40 40
33.2092 -1.4374 0.7476 255 40 40
33.1496 -1.4358 0.7476 255 40 40
33.0900 -1.4343 0.7476 255 40 40
33.0304 -1.4328 0.7476 255 40 40
32.9708 -1.4313 0.7476 255 40 40
32.9111 -1.4297 0.7476 255 40 40
32.8515 -1.4282 0.7476 255 40 40
32.7919 -1.4267 0.7476 255 40 40
32.7323 -1.4251 0.7476 255 40 40
32.6726 -1.4236 0.7476 255 40 40
32.6130 -1.4221 0.7476 255 40 40
32.5534 -1.4206 0.7476 255 40 40
32.4938 -1.4190 0.7476 255 40 40
32.4341 -1.4175 0.7476 255 40 40
32.3745 -1.4160 0.7476 255 40 40
32.3149 -1.4145 0.7476 255 40 40
32.2553 -1.4129 0.7476 255 40 40
32.1956 -1.4114 0.7476 255 40 40
32.1360 -1.4099 0.7476 255 40 40
32.0764 -1.4084 0.7476 255 40 40
32.0168 -1.4068 0.7476 255 40 40
31.9571 -1.4053 0.7476 255 40 40
31.8975 -1.4038 0.7476 255 40 40
31.8379 -1.4023 0.7476 255 40 40
31.7783 -1.4007 0.7476 255 40 40
31.7186 -1.3992 0.7476 255 40 40
31.6590 -1.3977 0.7476 255 40 40
31.5994 -1.3962 0.7476 255 40 40
31.5398 -1.3946 0.7476 255 40 40
31.4802 -1.3931 0.7476 255 40 40
31.4205 -1.3916 0.7476 255 40 40
31.3609 -1.3901 0.7476 255 40 40
31.3013 -1.3885 0.7476 255 40 40
31.2417 -1.3870 0.7476 255 40 40
31.1820 -1.3855 0.7476 255 40 40
31.1224 -1.3840 0.7476 255 40 40
31.0628 -1.3824 0.7476 255 40 40
31.0032 -1.3809 0.7476 255 40 40
30.9435 -1.3794 0.7476 255 40 40
30.8839 -1.3779 0.7476 255 40 40
30.8243 -1.3763 0.7476 255 40 40
30.7647 -1.3748 0.7476 255 40 40
30.7050 -1.3733 0.7476 255 40 40
30.6454 -1.3718 0.7476 255 40 40
30.5858 -1.3702 0.7476 255 40 40
30.5262 -1.3687 0.7476 255 40 40
30.4665 -1.3672 0.7476 255 40 40
30.4069 -1.3657 0.7476 255 40 40
30.3473 -1.3641 0.7476 255 40 40
30.2877 -1.3626 0.7476 255 40 40
30.2281 -1.3611 0.7476 255 40 40
30.1684 -1.3596 0.7476 255 40 40
30.1088 -1.3580 0.7476 255 40 40
30.0492 -1.3565 0.7476 255 40 40
29.9896 -1.3550 0.7476 255 40 40
29.9299 -1.3535 0.7476 255 40 40
29.8703 -1.3519 0.7476 255 40 40
29.8107 -1.3504 0.7476 255 40 40
29.7511 -1.3489 0.7476 255 40 40
29.6914 -1.3473 0.7476 255 40 40
29.6318 -1.3458 0.7476 255 40 40
29.5722 -1.3443 0.7476 255 40 40
29.5126 -1.3428 0.7476 255 40 40
29.4529 -1.3412 0.7476 255 40 40
29.3933 -1.3397 0.7476 255 40 40
29.3337 -1.3382 0.7476 255 40 40
29.2741 -1.3367 0.7476 255 40 40
29.2144 -1.3351 0.7476 255 40 40
29.1548 -1.3336 0.7476 255 40 40
29.0952 -1.3321 0.7476 255 40 40
29.0356 -1.3306 0.7476 255 40 40
28.9759 -1.3290 0.7476 255 40 40
28.9163 -1.3275 0.7476 255 40 40
28.8567 -1.3260 0.7476 255 40 40
28.7971 -1.3245 0.7476 255 40 40
28.7375 -1.3229 0.7476 255 40 40
28.6778 -1.3214 0.7476 255 40 40
28.6182 -1.3199 0.7476 255 40 40
28.5586 -1.3184 0.7476 255 40 40
28.4990 -1.3168 0.7476 255 40 40
28.4393 -1.3153 0.7476 255 40 40
28.3797 -1.3138 0.7476 255 40 40
28.3201 -1.3123 0.7476 255 40 40
28.2605 -1.3107 0.7476 255 40 40
28.2008 -1.3092 0.7476 255 40 40
28.1412 -1.3077 0.7476 255 40 40
28.0816 -1.3062 0.7476 255 40 40
28.0220 -1.3046 0.7476 255 40 40
27.9623 -1.3031 0.7476 255 40 40
27.9027 -1.3016 0.7476 255 40 40
27.8431 -1.3001 0.7476 255 40 40
27.7835 -1.2985 0.7476 255 40 40
27.7238 -1.2970 0.7476 255 40 40
27.6642 -1.2955 0.7476 255 40 40
27.6046 -1.2940 0.7476 255 40 40
27.5450 -1.2924 0.7476 255 40 40
27.4853 -1.2909 0.7476 255 40 40
27.4257 -1.2894 0.7476 255 40 40
27.3661 -1.2879 0.7476 255 40 40
27.3065 -1.2863 0.7476 255 40 40
27.2469 -1.2848 0.7476 255 40 40
27.1872 -1.2833 0.7476 255 40 40
27.1276 -1.2818 0.7476 255 40 40
27.0680 -1.2802 0.7476 255 40 40
27.0084 -1.2787 0.7476 255 40 40
26.9487 -1.2772 0.7476 255 40 40
26.8891 -1.2757 0.7476 255 40 40
26.8295 -1.2741 0.7476 255 40 40
26.7699 -1.2726 0.7476 255 40 40
26.7102 -1.2711 0.7476 255 40 40
26.6506 -1.2696 0.7476 255 40 40
26.5910 -1.2680 0.7476 255 40 40
26.5314 -1.2665 0.7476 255 40 40
26.4717 -1.2650 0.7476 255 40 40
26.4121 -1.2634 0.7476 255 40 40
26.3525 -1.2619 0.7476 255 40 40
26.2929 -1.2604 0.7476 255 40 40
26.2332 -1.2589 0.7476 255 40 40
26.1736 -1.2573 0.7476 255 40 40
26.1140 -1.2558 0.7476 255 40 40
26.0544 -1.2543 0.7476 255 40 40
25.9947 -1.2528 0.7476 255 40 40
25.9351 -1.2512 0.7476 255 40 40
25.8755 -1.2497 0.7476 255 40 40
25.8159 -1.2482 0.7476 255 40 40
25.7563 -1.2467 0.7476 255 40 40
25.6966 -1.2451 0.7476 255 40 40
25.6370 -1.2436 0.7476 255 40 40
25.5774 -1.2421 0.7476 255 40 40
25.5178 -1.2406 0.7476 255 40 40
25.4581 -1.2390 0.7476 255 40 40
25.3985 -1.2375 0.7476 255 40 40
25.3389 -1.2360 0.7476 255 40 40
25.2793 -1.2345 0.7476 255 40 40
25.2196 -1.2329 0.7476 255 40 40
25.1600 -1.2314 0.7476 255 40 40
25.1004 -1.2299 0.7476 255 40 40
25.0408 -1.2284 0.7476 255 40 40
24.9811 -1.2268 0.7476 255 40 40
24.9215 -1.2253 0.7476 255 40 40
24.8619 -1.2238 0.7476 255 40 40
24.8023 -1.2223 0.7476 255 40 40
24.7426 -1.2207 0.7476 255 40 40
24.6830 -1.2192 0.7476 255 40 40
24.6234 -1.2177 0.7476 255 40 40
24.5638 -1.2162 0.7476 255 40 40
24.5042 -1.2146 0.7476 255 40 40
24.4445 -1.2131 0.7476 255 40 40
24.4445 -1.2131 0.7476 255 40 40
24.4441 -1.2305 0.7476 255 40 40
24.4436 -1.2479 0.7476 255 40 40
24.4432 -1.2653 0.7476 255 40 40
24.4427 -1.2827 0.7476 255 40 40
24.4423 -1.3001 0.7476 255 40 40
24.4419 -1.3175 0.7476 255 40 40
24.4414 -1.3349 0.7476 255 40 40
24.4410 -1.3523 0.7476 255 40 40
24.4405 -1.3697 0.7476 255 40 40
24.4401 -1.3871 0.7476 255 40 40
24.4396 -1.4045 0.7476 255 40 40
24.4392 -1.4219 0.7476 255 40 40
24.4387 -1.4393 0.7476 255 40 40
24.4383 -1.4567 0.7476 255 40 40
24.4378 -1.4741 0.7476 255 40 40
24.4374 -1.4915 0.7476 255 40 40
24.4370 -1.5089 0.7476 255 40 40
24.4365 -1.5263 0.7476 255 40 40
24.4361 -1.5437 0.7476 255 40 40
24.4356 -1.5611 0.7476 255 40 40
24.4352 -1.5785 0.7476 255 40 40
24.4347 -1.5959 0.7476 255 40 40
24.4343 -1.6133 0.7476 255 40 40
24.4338 -1.6307 0.7476 255 40 40
24.4334 -1.6481 0.7476 255 40 40
24.4330 -1.6656 0.7476 255 40 40
24.4325 -1.6830 0.7476 255 40 40
24.4321 -1.7004 0.7476 255 40 40
24.4316 -1.7178 0.7476 255 40 40
24.4312 -1.7352 0.7476 255 40 40
24.4307 -1.7526 0.7476 255 40 40
24.4303 -1.7700 0.7476 255 40 40
24.4298 -1.7874 0.7476 255 40 40
24.4294 -1.8048 0.7476 255 40 40
24.4289 -1.8222 0.7476 255 40 40
24.4285 -1.8396 0.7476 255 40 40
24.4281 -1.8570 0.7476 255 40 40
24.4276 -1.8744 0.7476 255 40 40
24.4272 -1.8918 0.7476 255 40 40
24.4267 -1.9092 0.7476 255 40 40
24.4263 -1.9266 0.7476 255 40 40
24.4258 -1.9440 0.7476 255 40 40
24.4254 -1.9614 0.7476 255 40 40
24.4249 -1.9788 0.7476 255 40 40
24.4245 -1.9962 0.7476 255 40 40
24.4240 -2.0136 0.7476 255 40 40
24.4236 -2.0310 0.7476 255 40 40
24.4232 -2.0484 0.7476 255 40 40
24.4227 -2.0658 0.7476 255 40 40
24.4223 -2.0832 0.7476 255 40 40
24.4218 -2.1006 0.7476 255 40 40
24.4214 -2.1180 0.7476 255 40 40
24.4209 -2.1354 0.7476 255 40 40
24.4205 -2.1528 0.7476 255 40 40
24.4200 -2.1702 0.7476 255 40 40
24.4196 -2.1876 0.7476 255 40 40
24.4191 -2.2050 0.7476 255 40 40
24.4187 -2.2224 0.7476 255 40 40
24.4183 -2.2398 0.7476 255 40 40
24.4178 -2.2572 0.7476 255 40 40
24.4174 -2.2746 0.7476 255 40 40
24.4169 -2.2920 0.7476 255 40 40
24.4165 -2.3094 0.7476 255 40 40
24.4160 -2.3268 0.7476 255 40 40
24.4156 -2.3442 0.7476 255 40 40
24.4151 -2.3616 0.7476 255 40 40
24.4147 -2.3790 0.7476 255 40 40
24.4143 -2.3964 0.7476 255 40 40
24.4138 -2.4138 0.7476 255 40 40
24.4134 -2.4312 0.7476 255 40 40
24.4129 -2.4486 0.7476 255 40 40
24.4125 -2.4660 0.7476 255 40 40
24.4120 -2.4834 0.7476 255 40 40
24.4116 -2.5008 0.7476 255 40 40
24.4111 -2.5182 0.7476 255 40 40
24.4107 -2.5356 0.7476 255 40 40
24.4102 -2.5530 0.7476 255 40 40
24.4098 -2.5704 0.7476 255 40 40
24.4094 -2.5878 0.7476 255 40 40
24.4089 -2.6052 0.7476 255 40 40
24.4085 -2.6226 0.7476 255 40 40
24.4080 -2.6400 0.7476 255 40 40
24.4076 -2.6574 0.7476 255 40 40
24.4071 -2.6748 0.7476 255 40 40
24.4067 -2.6923 0.7476 255 40 40
24.4062 -2.7097 0.7476 255 40 40
24.4058 -2.7271 0.7476 255 40 40
24.4053 -2.7445 0.7476 255 40 40
24.4049 -2.7619 0.7476 255 40 40
24.4045 -2.7793 0.7476 255 40 40
24.4040 -2.7967 0.7476 255 40 40
24.4036 -2.8141 0.7476 255 40 40
24.4031 -2.8315 0.7476 255 40 40
24.4027 -2.8489 0.7476 255 40 40
24.4022 -2.8663 0.7476 255 40 40
24.4018 -2.8837 0.7476 255 40 40
24.4013 -2.9011 0.7476 255 40 40
24.4009 -2.9185 0.7476 255 40 40
24.4004 -2.9359 0.7476 255 40 40
24.4000 -2.9533 0.7476 255 40 40
24.3996 -2.9707 0.7476 255 40 40
24.3991 -2.9881 0.7476 255 40 40
24.3987 -3.0055 0.7476 255 40 40
24.3982 -3.0229 0.7476 255 40 40
24.3978 -3.0403 0.7476 255 40 40
24.3973 -3.0577 0.7476 255 40 40
24.3969 -3.0751 0.7476 255 40 40
24.3964 -3.0925 0.7476 255 40 40
24.3960 -3.1099 0.7476 255 40 40
24.3956 -3.1273 0.7476 255 40 40
24.3951 -3.1447 0.7476 255 40 40
24.3947 -3.1621 0.7476 255 40 40
24.3942 -3.1795 0.7476 255 40 40
24.3938 -3.1969 0.7476 255 40 40
24.3933 -3.2143 0.7476 255 40 40
24.3929 -3.2317 0.7476 255 40 40
24.3924 -3.2491 0.7476 255 40 40
24.3920 -3.2665 0.7476 255 40 40
24.3915 -3.2839 0.7476 255 40 40
24.3911 -3.3013 0.7476 255 40 40
24.3907 -3.3187 0.7476 255 40 40
24.3902 -3.3361 0.7476 255 40 40
24.3898 -3.3535 0.7476 255 40 40
24.3893 -3.3709 0.7476 255 40 40
24.3889 -3.3883 0.7476 255 40 40
24.3884 -3.4057 0.7476 255 40 40
24.3880 -3.4231 0.7476 255 40 40
24.3875 -3.4405 0.7476 255 40 40
24.3871 -3.4579 0.7476 255 40 40
24.3866 -3.4753 0.7476 255 40 40
24.3862 -3.4927 0.7476 255 40 40
24.3858 -3.5101 0.7476 255 40 40
24.3853 -3.5275 0.7476 255 40 40
24.3849 -3.5449 0.7476 255 40 40
24.3844 -3.5623 0.7476 255 40 40
24.3840 -3.5797 0.7476 255 40 40
24.3835 -3.5971 0.7476 255 40 40
24.3831 -3.6145 0.7476 255 40 40
24.3826 -3.6319 0.7476 255 40 40
24.3822 -3.6493 0.7476 255 40 40
24.3818 -3.6667 0.7476 255 40 40
24.3813 -3.6841 0.7476 255 40 40
24.3809 -3.7015 0.7476 255 40 40
24.3804 -3.7190 0.7476 255 40 40
24.3800 -3.7364 0.7476 255 40 40
24.3795 -3.7538 0.7476 255 40 40
24.3791 -3.7712 0.7476 255 40 40
24.3786 -3.7886 0.7476 255 40 40
24.3782 -3.8060 0.7476 255 40 40
24.3777 -3.8234 0.7476 255 40 40
24.3773 -3.8408 0.7476 255 40 40
24.3769 -3.8582 0.7476 255 40 40
24.3764 -3.8756 0.7476 255 40 40
24.3760 -3.8930 0.7476 255 40 40
24.3755 -3.9104 0.7476 255 40 40
24.3751 -3.9278 0.7476 255 40 40
24.3746 -3.9452 0.7476 255 40 40
24.3742 -3.9626 0.7476 255 40 40
24.3737 -3.9800 0.7476 255 40 40
24.3733 -3.9974 0.7476 255 40 40
24.3728 -4.0148 0.7476 255 40 40
24.3724 -4.0322 0.7476 255 40 40
24.3720 -4.0496 0.7476 255 40 40
24.3715 -4.0670 0.7476 255 40 40
24.3711 -4.0844 0.7476 255 40 40
24.3711 -4.0844 3.7815 255 40 40
24.4307 -4.0859 3.7815 255 40 40
24.4903 -4.0874 3.7815 255 40 40
24.5499 -4.0890 3.7815 255 40 40
24.6096 -4.0905 3.7815 255 40 40
24.6692 -4.0920 3.7815 255 40 40
24.7288 -4.0935 3.7815 255 40 40
24.7884 -4.0951 3.7815 255 40 40
24.8481 -4.0966 3.7815 255 40 40
24.9077 -4.0981 3.7815 255 40 40
24.9673 -4.0996 3.7815 255 40 40
25.0269 -4.1012 3.7815 255 40 40
25.0866 -4.1027 3.7815 255 40 40
25.1462 -4.1042 3.7815 255 40 40
25.2058 -4.1057 3.7815 255 40 40
25.2654 -4.1073 3.7815 255 40 40
25.3250 -4.1088 3.7815 255 40 40
25.3847 -4.1103 3.7815 255 40 40
25.4443 -4.1118 3.7815 255 40 40
25.5039 -4.1134 3.7815 255 40 40
25.5635 -4.1149 3.7815 255 40 40
25.6232 -4.1164 3.7815 255 40 40
25.6828 -4.1179 3.7815 255 40 40
25.7424 -4.1195 3.7815 255 40 40
25.8020 -4.1210 3.7815 255 40 40
25.8617 -4.1225 3.7815 255 40 40
25.9213 -4.1240 3.7815 255 40 40
25.9809 -4.1256 3.7815 255 40 40
26.0405 -4.1271 3.7815 255 40 40
26.1002 -4.1286 3.7815 255 40 40
26.1598 -4.1302 3.7815 255 40 40
26.2194 -4.1317 3.7815 255 40 40
26.2790 -4.1332 3.7815 255 40 40
26.3387 -4.1347 3.7815 255 40 40
26.3983 -4.1363 3.7815 255 40 40
26.4579 -4.1378 3.7815 255 40 40
26.5175 -4.1393 3.7815 255 40 40
26.5772 -4.1408 3.7815 255 40 40
26.6368 -4.1424 3.7815 255 40 40
26.6964 -4.1439 3.7815 255 40 40
26.7560 -4.1454 3.7815 255 40 40
26.8156 -4.1469 3.7815 255 40 40
26.8753 -4.1485 3.7815 255 40 40
26.9349 -4.1500 3.7815 255 40 40
26.9945 -4.1515 3.7815 255 40 40
27.0541 -4.1530 3.7815 255 40 40
27.1138 -4.1546 3.7815 255 40 40
27.1734 -4.1561 3.7815 255 40 40
27.2330 -4.1576 3.7815 255 40 40
27.2926 -4.1591 3.7815 255 40 40
27.3523 -4.1607 3.7815 255 40 40
27.4119 -4.1622 3.7815 255 40 40
27.4715 -4.1637 3.7815 255 40 40
27.5311 -4.1652 3.7815 255 40 40
27.5908 -4.1668 3.7815 255 40 40
27.6504 -4.1683 3.7815 255 40 40
27.7100 -4.1698 3.7815 255 40 40
27.7696 -4.1713 3.7815 255 40 40
27.8293 -4.1729 3.7815 255 40 40
27.8889 -4.1744 3.7815 255 40 40
27.9485 -4.1759 3.7815 255 40 40
28.0081 -4.1774 3.7815 255 40 40
28.0678 -4.1790 3.7815 255 40 40
28.1274 -4.1805 3.7815 255 40 40
28.1870 -4.1820 3.7815 255 40 40
28.2466 -4.1835 3.7815 255 40 40
28.3062 -4.1851 3.7815 255 40 40
28.3659 -4.1866 3.7815 255 40 40
28.4255 -4.1881 3.7815 255 40 40
28.4851 -4.1896 3.7815 255 40 40
28.5447 -4.1912 3.7815 255 40 40
28.6044 -4.1927 3.7815 255 40 40
28.6640 -4.1942 3.7815 255 40 40
28.7236 -4.1957 3.7815 255 40 40
28.7832 -4.1973 3.7815 255 40 40
28.8429 -4.1988 3.7815 255 40 40
28.9025 -4.2003 3.7815 255 40 40
28.9621 -4.2018 3.7815 255 40 40
29.0217 -4.2034 3.7815 255 40 40
29.0814 -4.2049 3.7815 255 40 40
29.1410 -4.2064 3.7815 255 40 40
29.2006 -4.2080 3.7815 255 40 40
29.2602 -4.2095 3.7815 255 40 40
29.3199 -4.2110 3.7815 255 40 40
29.3795 -4.2125 3.7815 255 40 40
29.4391 -4.2141 3.7815 255 40 40
29.4987 -4.2156 3.7815 255 40 40
29.5583 -4.2171 3.7815 255 40 40
29.6180 -4.2186 3.7815 255 40 40
29.6776 -4.2202 3.7815 255 40 40
29.7372 -4.2217 3.7815 255 40 40
29.7968 -4.2232 3.7815 255 40 40
29.8565 -4.2247 3.7815 255 40 40
29.9161 -4.2263 3.7815 255 40 40
29.9757 -4.2278 3.7815 255 40 40
30.0353 -4.2293 3.7815 255 40 40
30.0950 -4.2308 3.7815 255 40 40
30.1546 -4.2324 3.7815 255 40 40
30.2142 -4.2339 3.7815 255 40 40
30.2738 -4.2354 3.7815 255 40 40
30.3335 -4.2369 3.7815 255 40 40
30.3931 -4.2385 3.7815 255 40 40
30.4527 -4.2400 3.7815 255 40 40
30.5123 -4.2415 3.7815 255 40 40
30.5720 -4.2430 3.7815 255 40 40
30.6316 -4.2446 3.7815 255 40 40
30.6912 -4.2461 3.7815 255 40 40
30.7508 -4.2476 3.7815 255 40 40
30.8105 -4.2491 3.7815 255 40 40
30.8701 -4.2507 3.7815 255 40 40
30.9297 -4.2522 3.7815 255 40 40
30.9893 -4.2537 3.7815 255 40 40
31.0489 -4.2552 3.7815 255 40 40
31.1086 -4.2568 3.7815 255 40 40
31.1682 -4.2583 3.7815 255 40 40
31.2278 -4.2598 3.7815 255 40 40
31.2874 -4.2613 3.7815 255 40 40
31.3471 -4.2629 3.7815 255 40 40
31.4067 -4.2644 3.7815 255 40 40
31.4663 -4.2659 3.7815 255 40 40
31.5259 -4.2674 3.7815 255 40 40
31.5856 -4.2690 3.7815 255 40 40
31.6452 -4.2705 3.7815 255 40 40
31.7048 -4.2720 3.7815 255 40 40
31.7644 -4.2735 3.7815 255 40 40
31.8241 -4.2751 3.7815 255 40 40
31.8837 -4.2766 3.7815 255 40 40
31.9433 -4.2781 3.7815 255 40 40
32.0029 -4.2796 3.7815 255 40 40
32.0626 -4.2812 3.7815 255 40 40
32.1222 -4.2827 3.7815 255 40 40
32.1818 -4.2842 3.7815 255 40 40
32.2414 -4.2857 3.7815 255 40 40
32.3011 -4.2873 3.7815 255 40 40
32.3607 -4.2888 3.7815 255 40 40
32.4203 -4.2903 3.7815 255 40 40
32.4799 -4.2919 3.7815 255 40 40
32.5395 -4.2934 3.7815 255 40 40
32.5992 -4.2949 3.7815 255 40 40
32.6588 -4.2964 3.7815 255 40 40
32.7184 -4.2980 3.7815 255 40 40
32.7780 -4.2995 3.7815 255 40 40
32.8377 -4.3010 3.7815 255 40 40
32.8973 -4.3025 3.7815 255 40 40
32.9569 -4.3041 3.7815 255 40 40
33.0165 -4.3056 3.7815 255 40 40
33.0762 -4.3071 3.7815 255 40 40
33.1358 -4.3086 3.7815 255 40 40
33.1954 -4.3102 3.7815 255 40 40
33.2550 -4.3117 3.7815 255 40 40
33.3147 -4.3132 3.7815 255 40 40
33.3743 -4.3147 3.7815 255 40 40
33.4339 -4.3163 3.7815 255 40 40
33.4935 -4.3178 3.7815 255 40 40
33.5532 -4.3193 3.7815 255 40 40
33.6128 -4.3208 3.7815 255 40 40
33.6724 -4.3224 3.7815 255 40 40
33.7320 -4.3239 3.7815 255 40 40
33.7917 -4.3254 3.7815 255 40 40
33.8513 -4.3269 3.7815 255 40 40
33.9109 -4.3285 3.7815 255 40 40
33.9705 -4.3300 3.7815 255 40 40
34.0301 -4.3315 3.7815 255 40 40
34.0898 -4.3330 3.7815 255 40 40
34.1494 -4.3346 3.7815 255 40 40
34.2090 -4.3361 3.7815 255 40 40
34.2090 -4.3361 3.7815 255 40 40
34.2095 -4.3187 3.7815 255 40 40
34.2099 -4.3013 3.7815 255 40 40
34.2104 -4.2839 3.7815 255 40 40
34.2108 -4.2665 3.7815 255 40 40
34.2112 -4.2491 3.7815 255 40 40
34.2117 -4.2317 3.7815 255 40 40
34.2121 -4.2143 3.7815 255 40 40
34.2126 -4.1969 3.7815 255 40 40
34.2130 -4.1795 3.7815 255 40 40
34.2135 -4.1621 3.7815 255 40 40
34.2139 -4.1447 3.7815 255 40 40
34.2144 -4.1273 3.7815 255 40 40
34.2148 -4.1099 3.7815 255 40 40
34.2153 -4.0925 3.7815 255 40 40
34.2157 -4.0751 3.7815 255 40 40
34.2161 -4.0577 3.7815 255 40 40
34.2166 -4.0403 3.7815 255 40 40
34.2170 -4.0229 3.7815 255 40 40
34.2175 -4.0055 3.7815 255 40 40
34.2179 -3.9881 3.7815 255 40 40
34.2184 -3.9707 3.7815 255 40 40
34.2188 -3.9533 3.7815 255 40 40
34.2193 -3.9359 3.7815 255 40 40
34.2197 -3.9185 3.7815 255 40 40
34.2201 -3.9010 3.7815 255 40 40
34.2206 -3.8836 3.7815 255 40 40
34.2210 -3.8662 3.7815 255 40 40
34.2215 -3.8488 3.7815 255 40 40
34.2219 -3.8314 3.7815 255 40 40
34.2224 -3.8140 3.7815 255 40 40
34.2228 -3.7966 3.7815 255 40 40
34.2233 -3.7792 3.7815 255 40 40
34.2237 -3.7618 3.7815 255 40 40
34.2242 -3.7444 3.7815 255 40 40
34.2246 -3.7270 3.7815 255 40 40
34.2250 -3.7096 3.7815 255 40 40
34.2255 -3.6922 3.7815 255 40 40
34.2259 -3.6748 3.7815 255 40 40
34.2264 -3.6574 3.7815 255 40 40
34.2268 -3.6400 3.7815 255 40 40
34.2273 -3.6226 3.7815 255 40 40
34.2277 -3.6052 3.7815 255 40 40
34.2282 -3.5878 3.7815 255 40 40
34.2286 -3.5704 3.7815 255 40 40
34.2291 -3.5530 3.7815 255 40 40
34.2295 -3.5356 3.7815 255 40 40
34.2299 -3.5182 3.7815 255 40 40
34.2304 -3.5008 3.7815 255 40 40
34.2308 -3.4834 3.7815 255 40 40
34.2313 -3.4660 3.7815 255 40 40
34.2317 -3.4486 3.7815 255 40 40
34.2322 -3.4312 3.7815 255 40 40
34.2326 -3.4138 3.7815 255 40 40
34.2331 -3.3964 3.7815 255 40 40
34.2335 -3.3790 3.7815 255 40 40
34.2340 -3.3616 3.7815 255 40 40
34.2344 -3.3442 3.7815 255 40 40
34.2348 -3.3268 3.7815 255 40 40
34.2353 -3.3094 3.7815 255 40 40
34.2357 -3.2920 3.7815 255 40 40
34.2362 -3.2746 3.7815 255 40 40
34.2366 -3.2572 3.7815 255 40 40
34.2371 -3.2398 3.7815 255 40 40
34.2375 -3.2224 3.7815 255 40 40
34.2380 -3.2050 3.7815 255 40 40
34.2384 -3.1876 3.7815 255 40 40
34.2388 -3.1702 3.7815 255 40 40
34.2393 -3.1528 3.7815 255 40 40
34.2397 -3.1354 3.7815 255 40 40
34.2402 -3.1180 3.7815 255 40 40
34.2406 -3.1006 3.7815 255 40 40
34.2411 -3.0832 3.7815 255 40 40
34.2415 -3.0658 3.7815 255 40 40
34.2420 -3.0484 3.7815 255 40 40
34.2424 -3.0310 3.7815 255 40 40
34.2429 -3.0136 3.7815 255 40 40
34.2433 -2.9962 3.7815 255 40 40
34.2437 -2.9788 3.7815 255 40 40
34.2442 -2.9614 3.7815 255 40 40
34.2446 -2.9440 3.7815 255 40 40
34.2451 -2.9266 3.7815 255 40 40
34.2455 -2.9092 3.7815 255 40 40
34.2460 -2.8918 3.7815 255 40 40
34.2464 -2.8743 3.7815 255 40 40
34.2469 -2.8569 3.7815 255 40 40
34.2473 -2.8395 3.7815 255 40 40
34.2478 -2.8221 3.7815 255 40 40
34.2482 -2.8047 3.7815 255 40 40
34.2486 -2.7873 3.7815 255 40 40
34.2491 -2.7699 3.7815 255 40 40
34.2495 -2.7525 3.7815 255 40 40
34.2500 -2.7351 3.7815 255 40 40
34.2504 -2.7177 3.7815 255 40 40
34.2509 -2.7003 3.7815 255 40 40
34.2513 -2.6829 3.7815 255 40 40
34.2518 -2.6655 3.7815 255 40 40
34.2522 -2.6481 3.7815 255 40 40
34.2526 -2.6307 3.7815 255 40 40
34.2531 -2.6133 3.7815 255 40 40
34.2535 -2.5959 3.7815 255 40 40
34.2540 -2.5785 3.7815 255 40 40
34.2544 -2.5611 3.7815 255 40 40
34.2549 -2.5437 3.7815 255 40 40
34.2553 -2.5263 3.7815 255 40 40
34.2558 -2.5089 3.7815 255 40 40
34.2562 -2.4915 3.7815 255 40 40
34.2567 -2.4741 3.7815 255 40 40
34.2571 -2.4567 3.7815 255 40 40
34.2575 -2.4393 3.7815 255 40 40
34.2580 -2.4219 3.7815 255 40 40
34.2584 -2.4045 3.7815 255 40 40
34.2589 -2.3871 3.7815 255 40 40
34.2593 -2.3697 3.7815 255 40 40
34.2598 -2.3523 3.7815 255 40 40
34.2602 -2.3349 3.7815 255 40 40
34.2607 -2.3175 3.7815 255 40 40
34.2611 -2.3001 3.7815 255 40 40
34.2616 -2.2827 3.7815 255 40 40
34.2620 -2.2653 3.7815 255 40 40
34.2624 -2.2479 3.7815 255 40 40
34.2629 -2.2305 3.7815 255 40 40
34.2633 -2.2131 3.7815 255 40 40
34.2638 -2.1957 3.7815 255 40 40
34.2642 -2.1783 3.7815 255 40 40
34.2647 -2.1609 3.7815 255 40 40
34.2651 -2.1435 3.7815 255 40 40
34.2656 -2.1261 3.7815 255 40 40
34.2660 -2.1087 3.7815 255 40 40
34.2664 -2.0913 3.7815 255 40 40
34.2669 -2.0739 3.7815 255 40 40
34.2673 -2.0565 3.7815 255 40 40
34.2678 -2.0391 3.7815 255 40 40
34.2682 -2.0217 3.7815 255 40 40
34.2687 -2.0043 3.7815 255 40 40
34.2691 -1.9869 3.7815 255 40 40
34.2696 -1.9695 3.7815 255 40 40
34.2700 -1.9521 3.7815 255 40 40
34.2705 -1.9347 3.7815 255 40 40
34.2709 -1.9173 3.7815 255 40 40
34.2713 -1.8999 3.7815 255 40 40
34.2718 -1.8825 3.7815 255 40 40
34.2722 -1.8651 3.7815 255 40 40
34.2727 -1.8476 3.7815 255 40 40
34.2731 -1.8302 3.7815 255 40 40
34.2736 -1.8128 3.7815 255 40 40
34.2740 -1.7954 3.7815 255 40 40
34.2745 -1.7780 3.7815 255 40 40
34.2749 -1.7606 3.7815 255 40 40
34.2754 -1.7432 3.7815 255 40 40
34.2758 -1.7258 3.7815 255 40 40
34.2762 -1.7084 3.7815 255 40 40
34.2767 -1.6910 3.7815 255 40 40
34.2771 -1.6736 3.7815 255 40 40
34.2776 -1.6562 3.7815 255 40 40
34.2780 -1.6388 3.7815 255 40 40
34.2785 -1.6214 3.7815 255 40 40
34.2789 -1.6040 3.7815 255 40 40
34.2794 -1.5866 3.7815 255 40 40
34.2798 -1.5692 3.7815 255 40 40
34.2803 -1.5518 3.7815 255 40 40
34.2807 -1.5344 3.7815 255 40 40
34.2811 -1.5170 3.7815 255 40 40
34.2816 -1.4996 3.7815 255 40 40
34.2820 -1.4822 3.7815 255 40 40
34.2825 -1.4648 3.7815 255 40 40
34.2825 -1.4648 3.7815 255 40 40
34.2229 -1.4633 3.7815 255 40 40
34.1632 -1.4618 3.7815 255 40 40
34.1036 -1.4602 3.7815 255 40 40
34.0440 -1.4587 3.7815 255 40 40
33.9844 -1.4572 3.7815 255 40 40
33.9247 -1.4557 3.7815 255 40 40
33.8651 -1.4541 3.7815 255 40 40
33.8055 -1.4526 3.7815 255 40 40
33.7459 -1.4511 3.7815 255 40 40
33.6862 -1.4496 3.7815 255 40 40
33.6266 -1.4480 3.7815 255 40 40
33.5670 -1.4465 3.7815 255 40 40
33.5074 -1.4450 3.7815 255 40 40
33.4477 -1.4435 3.7815 255 40 40
33.3881 -1.4419 3.7815 255 40 40
33.3285 -1.4404 3.7815 255 40 40
33.2689 -1.4389 3.7815 255 40 40
33.2092 -1.4374 3.7815 255 40 40
33.1496 -1.4358 3.7815 255 40 40
33.0900 -1.4343 3.7815 255 40 40
33.0304 -1.4328 3.7815 255 40 40
32.9708 -1.4313 3.7815 255 40 40
32.9111 -1.4297 3.7815 255 40 40
32.8515 -1.4282 3.7815 255 40 40
32.7919 -1.4267 3.7815 255 40 40
32.7323 -1.4251 3.7815 255 40 40
32.6726 -1.4236 3.7815 255 40 40
32.6130 -1.4221 3.7815 255 40 40
32.5534 -1.4206 3.7815 255 40 40
32.4938 -1.4190 3.7815 255 40 40
32.4341 -1.4175 3.7815 255 40 40
32.3745 -1.4160 3.7815 255 40 40
32.3149 -1.4145 3.7815 255 40 40
32.2553 -1.4129 3.7815 255 40 40
32.1956 -1.4114 3.7815 255 40 40
32.1360 -1.4099 3.7815 255 40 40
32.0764 -1.4084 3.7815 255 40 40
32.0168 -1.4068 3.7815 255 40 40
31.9571 -1.4053 3.7815 255 40 40
31.8975 -1.4038 3.7815 255 40 40
31.8379 -1.4023 3.7815 255 40 40
31.7783 -1.4007 3.7815 255 40 40
31.7186 -1.3992 3.7815 255 40 40
31.6590 -1.3977 3.7815 255 40 40
31.5994 -1.3962 3.7815 255 40 40
31.5398 -1.3946 3.7815 255 40 40
31.4802 -1.3931 3.7815 255 40 40
31.4205 -1.3916 3.7815 255 40 40
31.3609 -1.3901 3.7815 255 40 40
31.3013 -1.3885 3.7815 255 40 40
31.2417 -1.3870 3.7815 255 40 40
31.1820 -1.3855 3.7815 255 40 40
31.1224 -1.3840 3.7815 255 40 40
31.0628 -1.3824 3.7815 255 40 40
31.0032 -1.3809 3.7815 255 40 40
30.9435 -1.3794 3.7815 255 40 40
30.8839 -1.3779 3.7815 255 40 40
30.8243 -1.3763 3.7815 255 40 40
30.7647 -1.3748 3.7815 255 40 40
30.7050 -1.3733 3.7815 255 40 40
30.6454 -1.3718 3.7815 255 40 40
30.5858 -1.3702 3.7815 255 40 40
30.5262 -1.3687 3.7815 255 40 40
30.4665 -1.3672 3.7815 255 40 40
30.4069 -1.3657 3.7815 255 40 40
30.3473 -1.3641 3.7815 255 40 40
30.2877 -1.3626 3.7815 255 40 40
30.2281 -1.3611 3.7815 255 40 40
30.1684 -1.3596 3.7815 255 40 40
30.1088 -1.3580 3.7815 255 40 40
30.0492 -1.3565 3.7815 255 40 40
29.9896 -1.3550 3.7815 255 40 40
29.9299 -1.3535 3.7815 255 40 40
29.8703 -1.3519 3.7815 255 40 40
29.8107 -1.3504 3.7815 255 40 40
29.7511 -1.3489 3.7815 255 40 40
29.6914 -1.3473 3.7815 255 40 40
29.6318 -1.3458 3.7815 255 40 40
29.5722 -1.3443 3.7815 255 40 40
29.5126 -1.3428 3.7815 255 40 40
29.4529 -1.3412 3.7815 255 40 40
29.3933 -1.3397 3.7815 255 40 40
29.3337 -1.3382 3.7815 255 40 40
29.2741 -1.3367 3.7815 255 40 40
29.2144 -1.3351 3.7815 255 40 40
29.1548 -1.3336 3.7815 255 40 40
29.0952 -1.3321 3.7815 255 40 40
29.0356 -1.3306 3.7815 255 40 40
28.9759 -1.3290 3.7815 255 40 40
28.9163 -1.3275 3.7815 255 40 40
28.8567 -1.3260 3.7815 255 40 40
28.7971 -1.3245 3.7815 255 40 40
28.7375 -1.3229 3.7815 255 40 40
28.6778 -1.3214 3.7815 255 40 40
28.6182 -1.3199 3.7815 255 40 40
28.5586 -1.3184 3.7815 255 40 40
28.4990 -1.3168 3.7815 255 40 40
28.4393 -1.3153 3.7815 255 40 40
28.3797 -1.3138 3.7815 255 40 40
28.3201 -1.3123 3.7815 255 40 40
28.2605 -1.3107 3.7815 255 40 40
28.2008 -1.3092 3.7815 255 40 40
28.1412 -1.3077 3.7815 255 40 40
28.0816 -1.3062 3.7815 255 40 40
28.0220 -1.3046 3.7815 255 40 40
27.9623 -1.3031 3.7815 255 40 40
27.9027 -1.3016 3.7815 255 40 40
27.8431 -1.3001 3.7815 255 40 40
27.7835 -1.2985 3.7815 255 40 40
27.7238 -1.2970 3.7815 255 40 40
27.6642 -1.2955 3.7815 255 40 40
27.6046 -1.2940 3.7815 255 40 40
27.5450 -1.2924 3.7815 255 40 40
27.4853 -1.2909 3.7815 255 40 40
27.4257 -1.2894 3.7815 255 40 40
27.3661 -1.2879 3.7815 255 40 40
27.3065 -1.2863 3.7815 255 40 40
27.2469 -1.2848 3.7815 255 40 40
27.1872 -1.2833 3.7815 255 40 40
27.1276 -1.2818 3.7815 255 40 40
27.0680 -1.2802 3.7815 255 40 40
27.0084 -1.2787 3.7815 255 40 40
26.9487 -1.2772 3.7815 255 40 40
26.8891 -1.2757 3.7815 255 40 40
26.8295 -1.2741 3.7815 255 40 40
26.7699 -1.2726 3.7815 255 40 40
26.7102 -1.2711 3.7815 255 40 40
26.6506 -1.2696 3.7815 255 40 40
26.5910 -1.2680 3.7815 255 40 40
26.5314 -1.2665 3.7815 255 40 40
26.4717 -1.2650 3.7815 255 40 40
26.4121 -1.2634 3.7815 255 40 40
26.3525 -1.2619 3.7815 255 40 40
26.2929 -1.2604 3.7815 255 40 40
26.2332 -1.2589 3.7815 255 40 40
26.1736 -1.2573 3.7815 255 40 40
26.1140 -1.2558 3.7815 255 40 40
26.0544 -1.2543 3.7815 255 40 40
25.9947 -1.2528 3.7815 255 40 40
25.9351 -1.2512 3.7815 255 40 40
25.8755 -1.2497 3.7815 255 40 40
25.8159 -1.2482 3.7815 255 40 40
25.7563 -1.2467 3.7815 255 40 40
25.6966 -1.2451 3.7815 255 40 40
25.6370 -1.2436 3.7815 255 40 40
25.5774 -1.2421 3.7815 255 40 40
25.5178 -1.2406 3.7815 255 40 40
25.4581 -1.2390 3.7815 255 40 40
25.3985 -1.2375 3.7815 255 40 40
25.3389 -1.2360 3.7815 255 40 40
25.2793 -1.2345 3.7815 255 40 40
25.2196 -1.2329 3.7815 255 40 40
25.1600 -1.2314 3.7815 255 40 40
25.1004 -1.2299 3.7815 255 40 40
25.0408 -1.2284 3.7815 255 40 40
24.9811 -1.2268 3.7815 255 40 40
24.9215 -1.2253 3.7815 255 40 40
24.8619 -1.2238 3.7815 255 40 40
24.8023 -1.2223 3.7815 255 40 40
24.7426 -1.2207 3.7815 255 40 40
24.6830 -1.2192 3.7815 255 40 40
24.6234 -1.2177 3.7815 255 40 40
24.5638 -1.2162 3.7815 255 40 40
24.5042 -1.2146 3.7815 255 40 40
24.4445 -1.2131 3.7815 255 40 40
24.4445 -1.2131 3.7815 255 40 40
24.4441 -1.2305 3.7815 255 40 40
24.4436 -1.2479 3.7815 255 40 40
24.4432 -1.2653 3.7815 255 40 40
24.4427 -1.2827 3.7815 255 40 40
24.4423 -1.3001 3.7815 255 40 40
24.4419 -1.3175 3.7815 255 40 40
24.4414 -1.3349 3.7815 255 40 40
24.4410 -1.3523 3.7815 255 40 40
24.4405 -1.3697 3.7815 255 40 40
24.4401 -1.3871 3.7815 255 40 40
24.4396 -1.4045 3.7815 255 40 40
24.4392 -1.4219 3.7815 255 40 40
24.4387 -1.4393 3.7815 255 40 40
24.4383 -1.4567 3.7815 255 40 40
24.4378 -1.4741 3.7815 255 40 40
24.4374 -1.4915 3.7815 255 40 40
24.4370 -1.5089 3.7815 255 40 40
24.4365 -1.5263 3.7815 255 40 40
24.4361 -1.5437 3.7815 255 40 40
24.4356 -1.5611 3.7815 255 40 40
24.4352 -1.5785 3.7815 255 40 40
24.4347 -1.5959 3.7815 255 40 40
24.4343 -1.6133 3.7815 255 40 40
24.4338 -1.6307 3.7815 255 40 40
24.4334 -1.6481 3.7815 255 40 40
24.4330 -1.6656 3.7815 255 40 40
24.4325 -1.6830 3.7815 255 40 40
24.4321 -1.7004 3.7815 255 40 40
24.4316 -1.7178 3.7815 255 40 40
24.4312 -1.7352 3.7815 255 40 40
24.4307 -1.7526 3.7815 255 40 40
24.4303 -1.7700 3.7815 255 40 40
24.4298 -1.7874 3.7815 255 40 40
24.4294 -1.8048 3.7815 255 40 40
24.4289 -1.8222 3.7815 255 40 40
24.4285 -1.8396 3.7815 255 40 40
24.4281 -1.8570 3.7815 255 40 40
24.4276 -1.8744 3.7815 255 40 40
24.4272 -1.8918 3.7815 255 40 40
24.4267 -1.9092 3.7815 255 40 40
24.4263 -1.9266 3.7815 255 40 40
24.4258 -1.9440 3.7815 255 40 40
24.4254 -1.9614 3.7815 255 40 40
24.4249 -1.9788 3.7815 255 40 40
24.4245 -1.9962 3.7815 255 40 40
24.4240 -2.0136 3.7815 255 40 40
24.4236 -2.0310 3.7815 255 40 40
24.4232 -2.0484 3.7815 255 40 40
24.4227 -2.0658 3.7815 255 40 40
24.4223 -2.0832 3.7815 255 40 40
24.4218 -2.1006 3.7815 255 40 40
24.4214 -2.1180 3.7815 255 40 40
24.4209 -2.1354 3.7815 255 40 40
24.4205 -2.1528 3.7815 255 40 40
24.4200 -2.1702 3.7815 255 40 40
24.4196 -2.1876 3.7815 255 40 40
24.4191 -2.2050 3.7815 255 40 40
24.4187 -2.2224 3.7815 255 40 40
24.4183 -2.2398 3.7815 255 40 40
24.4178 -2.2572 3.7815 255 40 40
24.4174 -2.2746 3.7815 255 40 40
24.4169 -2.2920 3.7815 255 40 40
24.4165 -2.3094 3.7815 255 40 40
24.4160 -2.3268 3.7815 255 40 40
24.4156 -2.3442 3.7815 255 40 40
24.4151 -2.3616 3.7815 255 40 40
24.4147 -2.3790 3.7815 255 40 40
24.4143 -2.3964 3.7815 255 40 40
24.4138 -2.4138 3.7815 255 40 40
24.4134 -2.4312 3.7815 255 40 40
24.4129 -2.4486 3.7815 255 40 40
24.4125 -2.4660 3.7815 255 40 40
24.4120 -2.4834 3.7815 255 40 40
24.4116 -2.5008 3.7815 255 40 40
24.4111 -2.5182 3.7815 255 40 40
24.4107 -2.5356 3.7815 255 40 40
24.4102 -2.5530 3.7815 255 40 40
24.4098 -2.5704 3.7815 255 40 40
24.4094 -2.5878 3.7815 255 40 40
24.4089 -2.6052 3.7815 255 40 40
24.4085 -2.6226 3.7815 255 40 40
24.4080 -2.6400 3.7815 255 40 40
24.4076 -2.6574 3.7815 255 40 40
24.4071 -2.6748 3.7815 255 40 40
24.4067 -2.6923 3.7815 255 40 40
24.4062 -2.7097 3.7815 255 40 40
24.4058 -2.7271 3.7815 255 40 40
24.4053 -2.7445 3.7815 255 40 40
24.4049 -2.7619 3.7815 255 40 40
24.4045 -2.7793 3.7815 255 40 40
24.4040 -2.7967 3.7815 255 40 40
24.4036 -2.8141 3.7815 255 40 40
24.4031 -2.8315 3.7815 255 40 40
24.4027 -2.8489 3.7815 255 40 40
24.4022 -2.8663 3.7815 255 40 40
24.4018 -2.8837 3.7815 255 40 40
24.4013 -2.9011 3.7815 255 40 40
24.4009 -2.9185 3.7815 255 40 40
24.4004 -2.9359 3.7815 255 40 40
24.4000 -2.9533 3.7815 255 40 40
24.3996 -2.9707 3.7815 255 40 40
24.3991 -2.9881 3.7815 255 40 40
24.3987 -3.0055 3.7815 255 40 40
24.3982 -3.0229 3.7815 255 40 40
24.3978 -3.0403 3.7815 255 40 40
24.3973 -3.0577 3.7815 255 40 40
24.3969 -3.0751 3.7815 255 40 40
24.3964 -3.0925 3.7815 255 40 40
24.3960 -3.1099 3.7815 255 40 40
24.3956 -3.1273 3.7815 255 40 40
24.3951 -3.1447 3.7815 255 40 40
24.3947 -3.1621 3.7815 255 40 40
24.3942 -3.1795 3.7815 255 40 40
24.3938 -3.1969 3.7815 255 40 40
24.3933 -3.2143 3.7815 255 40 40
24.3929 -3.2317 3.7815 255 40 40
24.3924 -3.2491 3.7815 255 40 40
24.3920 -3.2665 3.7815 255 40 40
24.3915 -3.2839 3.7815 255 40 40
24.3911 -3.3013 3.7815 255 40 40
24.3907 -3.3187 3.7815 255 40 40
24.3902 -3.3361 3.7815 255 40 40
24.3898 -3.3535 3.7815 255 40 40
24.3893 -3.3709 3.7815 255 40 40
24.3889 -3.3883 3.7815 255 40 40
24.3884 -3.4057 3.7815 255 40 40
24.3880 -3.4231 3.7815 255 40 40
24.3875 -3.4405 3.7815 255 40 40
24.3871 -3.4579 3.7815 255 40 40
24.3866 -3.4753 3.7815 255 40 40
24.3862 -3.4927 3.7815 255 40 40
24.3858 -3.5101 3.7815 255 40 40
24.3853 -3.5275 3.7815 255 40 40
24.3849 -3.5449 3.7815 255 40 40
24.3844 -3.5623 3.7815 255 40 40
24.3840 -3.5797 3.7815 255 40 40
24.3835 -3.5971 3.7815 255 40 40
24.3831 -3.6145 3.7815 255 40 40
24.3826 -3.6319 3.7815 255 40 40
24.3822 -3.6493 3.7815 255 40 40
24.3818 -3.6667 3.7815 255 40 40
24.3813 -3.6841 3.7815 255 40 40
24.3809 -3.7015 3.7815 255 40 40
24.3804 -3.7190 3.7815 255 40 40
24.3800 -3.7364 3.7815 255 40 40
24.3795 -3.7538 3.7815 255 40 40
24.3791 -3.7712 3.7815 255 40 40
24.3786 -3.7886 3.7815 255 40 40
24.3782 -3.8060 3.7815 255 40 40
24.3777 -3.8234 3.7815 255 40 40
24.3773 -3.8408 3.7815 255 40 40
24.3769 -3.8582 3.7815 255 40 40
24.3764 -3.8756 3.7815 255 40 40
24.3760 -3.8930 3.7815 255 40 40
24.3755 -3.9104 3.7815 255 40 40
24.3751 -3.9278 3.7815 255 40 40
24.3746 -3.9452 3.7815 255 40 40
24.3742 -3.9626 3.7815 255 40 40
24.3737 -3.9800 3.7815 255 40 40
24.3733 -3.9974 3.7815 255 40 40
24.3728 -4.0148 3.7815 255 40 40
24.3724 -4.0322 3.7815 255 40 40
24.3720 -4.0496 3.7815 255 40 40
24.3715 -4.0670 3.7815 255 40 40
24.3711 -4.0844 3.7815 255 40 40
24.3711 -4.0844 0.7476 255 40 40
24.3711 -4.0844 0.7660 255 40 40
24.3711 -4.0844 0.7844 255 40 40
24.3711 -4.0844 0.8028 255 40 40
24.3711 -4.0844 0.8212 255 40 40
24.3711 -4.0844 0.8396 255 40 40
24.3711 -4.0844 0.8580 255 40 40
24.3711 -4.0844 0.8763 255 40 40
24.3711 -4.0844 0.8947 255 40 40
24.3711 -4.0844 0.9131 255 40 40
24.3711 -4.0844 0.9315 255 40 40
24.3711 -4.0844 0.9499 255 40 40
24.3711 -4.0844 0.9683 255 40 40
24.3711 -4.0844 0.9867 255 40 40
24.3711 -4.0844 1.0051 255 40 40
24.3711 -4.0844 1.0234 255 40 40
24.3711 -4.0844 1.0418 255 40 40
24.3711 -4.0844 1.0602 255 40 40
24.3711 -4.0844 1.0786 255 40 40
24.3711 -4.0844 1.0970 255 40 40
24.3711 -4.0844 1.1154 255 40 40
24.3711 -4.0844 1.1338 255 40 40
24.3711 -4.0844 1.1522 255 40 40
24.3711 -4.0844 1.1705 255 40 40
24.3711 -4.0844 1.1889 255 40 40
24.3711 -4.0844 1.2073 255 40 40
24.3711 -4.0844 1.2257 255 40 40
24.3711 -4.0844 1.2441 255 40 40
24.3711 -4.0844 1.2625 255 40 40
24.3711 -4.0844 1.2809 255 40 40
24.3711 -4.0844 1.2992 255 40 40
24.3711 -4.0844 1.3176 255 40 40
24.3711 -4.0844 1.3360 255 40 40
