ply
format ascii 1.0
element vertex 1383
property float x
property float y
property float z
property uchar red
property uchar green
property uchar blue
end_header
20.7534 -7.9358 -0.0961 255 200 100
26.9122 -2.3495 1.2435 255 200 100
29.3830 -10.8035 4.7674 255 200 100
8.0612 -1.0031 -0.0539 255 200 100
7.3984 -1.3424 -0.0615 255 200 100
26.8266 -2.5116 3.0662 255 200 100
20.6020 -1.0704 0.0040 255 200 100
15.4390 -5.2345 -0.2954 255 200 100
8.7006 -0.2167 -0.0124 255 200 100
16.9623 9.0650 1.5485 255 200 100
11.9257 1.8783 0.0159 255 200 100
29.6928 -9.7950 6.1871 255 200 100
8.5266 1.0939 0.0170 255 200 100
8.6088 0.6006 0.0070 255 200 100
15.6180 6.0355 0.0546 255 200 100
11.0492 5.5730 0.0188 255 200 100
16.0745 8.9529 0.7490 255 200 100
8.3095 2.2536 0.0221 255 200 100
8.8765 -1.6502 -0.0878 255 200 100
13.8358 2.0409 0.0153 255 200 100
12.9658 -2.8091 -0.1833 255 200 100
15.8341 8.9317 0.7650 255 200 100
11.2101 -2.2103 -0.1389 255 200 100
16.4818 2.9185 0.0115 255 200 100
29.4873 -10.4709 5.4762 255 200 100
20.7808 -6.8920 -0.0791 255 200 100
15.6039 6.1325 0.0537 255 200 100
24.0525 3.8908 0.2347 255 200 100
28.2871 -14.1886 4.8632 255 200 100
30.8014 -6.4513 4.7304 255 200 100
16.6458 9.0568 3.2555 255 200 100
26.8787 -2.3580 2.4609 255 200 100
40.5813 -4.1023 6.5256 255 200 100
28.2491 -0.2316 0.5796 255 200 100
13.7303 2.7219 0.0198 255 200 100
12.2290 0.3222 -0.0189 255 200 100
25.9625 -3.8858 1.2658 255 200 100
34.1496 -4.8108 6.5897 255 200 100
36.1618 11.2606 2.8306 255 200 100
10.8268 -0.2379 -0.0304 255 200 100
7.2437 0.2021 0.0168 255 200 100
37.1497 13.9588 2.0165 255 200 100
24.5940 -6.1162 1.8753 255 200 100
8.0553 -1.3478 -0.0648 255 200 100
10.0637 3.7873 0.0158 255 200 100
7.3964 -1.1429 -0.0518 255 200 100
10.9234 -0.7094 -0.0526 255 200 100
12.2964 -0.1433 -0.0305 255 200 100
8.9333 -2.7763 -0.1594 255 200 100
29.5509 -13.4223 1.9637 255 200 100
29.8133 -9.4665 5.4601 255 200 100
10.6658 -5.1572 -0.1897 255 200 100
30.7207 -6.7928 4.0173 255 200 100
24.8905 8.3382 0.7538 255 200 100
25.6112 -4.4324 2.4456 255 200 100
20.6997 -2.8251 -0.0172 255 200 100
26.5710 -7.1126 3.1216 255 200 100
26.4270 -3.0638 2.4537 255 200 100
11.1211 -1.8194 -0.1111 255 200 100
14.4712 6.8268 2.2918 255 200 100
36.5244 12.0870 1.9838 255 200 100
30.5948 3.6916 2.5729 255 200 100
17.9124 8.8889 0.1756 255 200 100
24.6916 7.6538 0.7614 255 200 100
7.4074 -1.5034 -0.0725 255 200 100
29.5756 -13.4437 0.4866 255 200 100
12.4431 -0.8208 -0.0592 255 200 100
8.0780 -1.5714 -0.0805 255 200 100
7.8996 -0.0281 0.0048 255 200 100
29.2911 13.5311 0.5636 255 200 100
9.9889 -3.1537 -0.1857 255 200 100
19.3891 9.2170 4.3911 255 200 100
26.3767 -3.2015 1.2558 255 200 100
10.2796 2.9438 0.0157 255 200 100
34.9162 12.7137 7.1099 255 200 100
26.0784 -8.8970 0.0363 255 200 100
28.4885 -13.4828 6.2893 255 200 100
8.0610 -1.3909 -0.0681 255 200 100
28.5985 0.4029 1.2094 255 200 100
13.7626 2.4933 0.0191 255 200 100
25.3005 -4.9628 2.4442 255 200 100
11.1358 -1.8833 -0.1155 255 200 100
15.5743 9.2210 4.0228 255 200 100
30.1276 -11.6757 1.1974 255 200 100
26.8228 -2.4921 1.2455 255 200 100
8.0449 -2.9495 -0.1625 255 200 100
22.7969 8.7887 0.3009 255 200 100
17.1672 9.1089 3.2876 255 200 100
39.5962 -4.2201 5.4983 255 200 100
17.5591 9.2710 4.6700 255 200 100
12.8930 -4.9620 -0.2536 255 200 100
25.7442 -7.1822 0.0754 255 200 100
8.5410 4.5139 0.0208 255 200 100
10.0130 -2.4055 -0.1533 255 200 100
11.1975 -2.1451 -0.1346 255 200 100
15.4351 -4.9495 -0.2854 255 200 100
14.0715 7.4009 0.1850 255 200 100
16.7313 7.0323 3.1485 255 200 100
12.3810 -6.0606 -0.2325 255 200 100
7.1730 1.1364 0.0152 255 200 100
7.8044 3.7261 0.0303 255 200 100
28.3860 -13.8304 6.3050 255 200 100
30.6192 -10.3053 3.3762 255 200 100
7.4023 -1.3025 -0.0607 255 200 100
39.7218 9.0097 2.8599 255 200 100
7.7850 1.1168 0.0176 255 200 100
11.7711 6.2033 0.1743 255 200 100
26.3699 -10.3559 0.0010 255 200 100
10.0094 -3.0428 -0.1838 255 200 100
29.2277 -14.5021 0.5000 255 200 100
19.3152 9.2005 3.8978 255 200 100
11.3352 -3.3495 -0.2056 255 200 100
7.2449 0.1639 0.0167 255 200 100
30.0938 -11.8636 0.4667 255 200 100
24.4723 -0.3263 0.2033 255 200 100
8.1511 2.7790 0.0268 255 200 100
34.8038 11.7219 1.9805 255 200 100
14.2921 -0.4870 -0.0399 255 200 100
8.0104 -0.7407 -0.0335 255 200 100
25.8531 -7.8470 0.0619 255 200 100
30.0184 -8.9777 4.0310 255 200 100
49.0358 -3.2861 6.3715 255 200 100
15.7919 5.3121 0.0517 255 200 100
7.3811 -1.8235 -0.0844 255 200 100
7.8103 0.6654 0.0225 255 200 100
10.9616 -1.0694 -0.0650 255 200 100
15.6021 6.6141 0.8002 255 200 100
23.9244 4.6994 0.2420 255 200 100
10.9650 -1.1290 -0.0667 255 200 100
9.7812 -0.8370 -0.0563 255 200 100
17.8490 9.1418 2.4261 255 200 100
12.2892 -0.0089 -0.0289 255 200 100
17.2413 -1.6495 -0.0739 255 200 100
10.8593 5.8538 0.0314 255 200 100
17.6507 -6.2508 -0.2053 255 200 100
18.3125 9.1900 1.0576 255 200 100
38.0334 13.7341 4.7821 255 200 100
30.2714 -11.3480 0.4598 255 200 100
11.5052 4.0852 0.0192 255 200 100
9.3622 2.0218 0.0054 255 200 100
28.3680 -14.0406 4.1386 255 200 100
26.6524 -12.6236 -0.0451 255 200 100
17.3624 -8.9288 -0.2576 255 200 100
14.4495 6.6040 2.6353 255 200 100
15.6807 8.7494 2.7796 255 200 100
10.1493 3.4481 0.0173 255 200 100
16.7716 0.3447 -0.0093 255 200 100
12.0994 0.7791 0.0006 255 200 100
8.6818 -0.0346 -0.0070 255 200 100
24.6802 -5.9890 1.3001 255 200 100
29.8134 -12.7444 0.4774 255 200 100
37.2311 14.4799 2.0264 255 200 100
9.9920 -3.3970 -0.2004 255 200 100
13.2017 -3.9467 -0.2589 255 200 100
28.8949 0.8915 1.2041 255 200 100
43.4553 10.7124 0.9272 255 200 100
36.6071 12.5521 2.8714 255 200 100
29.4983 1.9123 1.1939 255 200 100
7.3192 -0.3624 -0.0072 255 200 100
16.7081 0.9911 -0.0024 255 200 100
12.2479 0.1909 -0.0219 255 200 100
37.8970 16.4805 3.0066 255 200 100
16.7654 0.9025 -0.0088 255 200 100
8.7265 -0.4474 -0.0208 255 200 100
20.7275 -8.1966 -0.0990 255 200 100
20.6749 -9.2748 -0.1172 255 200 100
8.7409 -4.0753 -0.2162 255 200 100
7.9953 -3.1767 -0.1699 255 200 100
7.2321 0.4268 0.0178 255 200 100
27.4033 -1.6073 0.6152 255 200 100
8.0901 -1.7964 -0.0949 255 200 100
15.3365 -4.1725 -0.2485 255 200 100
15.4260 -5.0377 -0.2871 255 200 100
22.9263 8.5420 0.2937 255 200 100
24.1250 3.3489 0.2304 255 200 100
24.9070 -5.6024 1.2936 255 200 100
11.1770 5.1835 0.0200 255 200 100
18.4183 9.2056 1.9770 255 200 100
29.7716 -12.7179 1.9511 255 200 100
29.9623 -12.2020 1.2047 255 200 100
18.6907 9.1457 3.8450 255 200 100
26.9988 -2.2260 3.0725 255 200 100
17.5583 9.4127 4.2266 255 200 100
22.4963 10.4730 0.3091 255 200 100
8.8031 -3.8168 -0.2074 255 200 100
8.9084 -3.0877 -0.1745 255 200 100
24.5569 -6.3960 0.7345 255 200 100
17.6159 -3.2830 -0.1377 255 200 100
25.1005 -5.3629 3.0211 255 200 100
9.9638 -4.3268 -0.2565 255 200 100
18.4780 9.5362 4.3259 255 200 100
14.6616 -5.8834 -0.2153 255 200 100
10.4277 2.2705 0.0125 255 200 100
9.8437 4.4562 0.0168 255 200 100
7.8805 0.1375 0.0098 255 200 100
33.2703 -4.8544 4.1553 255 200 100
25.1509 -5.3608 0.7097 255 200 100
15.8068 8.7272 2.3803 255 200 100
10.8199 -0.1784 -0.0288 255 200 100
24.8360 8.1647 0.7559 255 200 100
25.7753 -4.1627 2.4468 255 200 100
7.2385 0.2391 0.0181 255 200 100
30.9069 -9.2487 1.9007 255 200 100
26.3114 -3.3492 3.0490 255 200 100
29.2296 -11.3119 4.7791 255 200 100
12.8788 -5.0377 -0.2550 255 200 100
15.8017 8.9316 0.3578 255 200 100
18.8322 9.1446 2.4419 255 200 100
19.9582 2.9854 0.0635 255 200 100
12.5503 -1.3765 -0.0840 255 200 100
24.7420 7.8221 0.7594 255 200 100
8.8315 -1.2073 -0.0618 255 200 100
23.7273 5.6379 0.2528 255 200 100
30.3307 -11.1704 0.4575 255 200 100
10.6013 1.1945 0.0049 255 200 100
9.7386 -0.5725 -0.0433 255 200 100
29.5577 -13.4274 1.2232 255 200 100
8.1703 2.7393 0.0251 255 200 100
12.7995 -2.1183 -0.1388 255 200 100
18.2304 7.3267 0.1751 255 200 100
11.9877 1.5570 0.0110 255 200 100
27.2605 -1.7867 3.0828 255 200 100
20.6213 -9.6700 -0.1214 255 200 100
7.9572 -0.3596 -0.0127 255 200 100
31.2716 -5.0908 4.0208 255 200 100
20.8094 -5.0092 -0.0521 255 200 100
25.5323 -4.5646 2.4452 255 200 100
10.4932 1.8734 0.0114 255 200 100
15.3726 8.8850 0.7958 255 200 100
12.8907 -2.4250 -0.1609 255 200 100
8.4511 1.6809 0.0159 255 200 100
28.5575 -13.3239 5.5540 255 200 100
7.3691 -2.1517 -0.1045 255 200 100
20.7642 -7.4126 -0.0870 255 200 100
7.3590 -0.9032 -0.0320 255 200 100
28.8670 0.7365 0.5535 255 200 100
25.5925 -4.5642 0.6913 255 200 100
8.9103 -2.9820 -0.1677 255 200 100
7.2918 -0.1736 0.0027 255 200 100
26.5165 -3.0574 0.6525 255 200 100
19.1612 5.5514 0.1156 255 200 100
14.4525 6.7022 2.6396 255 200 100
31.7965 -4.9967 4.0555 255 200 100
11.9111 6.2011 0.1566 255 200 100
46.0910 11.0673 1.9574 255 200 100
19.7038 9.2353 4.4241 255 200 100
8.6498 0.1930 0.0005 255 200 100
15.3072 8.8905 2.3796 255 200 100
9.4719 -4.5941 -0.1812 255 200 100
7.3471 -2.2718 -0.1079 255 200 100
14.4490 6.5892 2.9892 255 200 100
26.5851 -2.9154 0.6497 255 200 100
17.3700 -2.4432 -0.0975 255 200 100
33.9549 -4.7742 5.7670 255 200 100
46.0710 11.3384 1.9611 255 200 100
17.6659 -5.0580 -0.1775 255 200 100
24.8431 6.1903 0.7510 255 200 100
9.7603 4.6770 0.0175 255 200 100
26.1572 -9.4249 0.0255 255 200 100
31.1532 -5.4406 4.7376 255 200 100
26.5254 -2.9262 2.4553 255 200 100
24.7371 -5.8606 2.4432 255 200 100
9.9165 -1.7659 -0.1084 255 200 100
11.7869 2.7890 0.0181 255 200 100
29.5887 -10.1371 5.4694 255 200 100
17.5804 -6.8963 -0.2155 255 200 100
28.5494 -13.3172 6.2836 255 200 100
7.9893 -0.6550 -0.0261 255 200 100
11.3256 -2.9463 -0.1866 255 200 100
20.6505 -1.7689 -0.0045 255 200 100
15.7422 5.5929 0.0511 255 200 100
15.3630 -4.2738 -0.2550 255 200 100
8.5275 1.1409 0.0156 255 200 100
29.9192 -9.1314 6.1798 255 200 100
7.4024 -1.5424 -0.0732 255 200 100
30.0690 -11.8536 1.1999 255 200 100
16.9951 9.0676 1.9806 255 200 100
11.1807 -2.0793 -0.1295 255 200 100
24.1325 3.2089 0.2300 255 200 100
29.2176 -11.3070 5.4943 255 200 100
10.0761 3.7301 0.0165 255 200 100
8.0377 -0.9137 -0.0451 255 200 100
25.1131 -3.1672 0.1475 255 200 100
20.8299 -3.6790 -0.0376 255 200 100
16.3396 3.9327 0.0147 255 200 100
7.1825 0.7958 0.0242 255 200 100
16.0380 8.9508 0.3371 255 200 100
12.8739 -2.3472 -0.1562 255 200 100
30.5783 -10.4884 3.3796 255 200 100
24.6886 -6.1381 0.7291 255 200 100
18.1705 7.7844 0.1729 255 200 100
30.9027 -9.2446 1.1659 255 200 100
9.6151 0.3053 -0.0133 255 200 100
13.7313 2.8023 0.0183 255 200 100
14.4515 6.8020 2.6440 255 200 100
30.0539 2.7558 3.2321 255 200 100
15.6415 9.2431 4.4464 255 200 100
31.9662 6.1320 0.4238 255 200 100
30.0319 -8.7994 5.4529 255 200 100
19.7063 4.1966 0.0789 255 200 100
17.6265 -6.5779 -0.2115 255 200 100
17.2331 9.0974 1.5421 255 200 100
17.6511 9.1442 2.8677 255 200 100
8.0469 3.0794 0.0292 255 200 100
16.7585 0.8100 -0.0079 255 200 100
29.4146 -13.7524 2.7055 255 200 100
7.1940 1.0252 0.0135 255 200 100
29.1812 -14.6845 0.5017 255 200 100
26.4219 -3.4997 0.6558 255 200 100
25.7421 -5.4915 0.0893 255 200 100
8.2010 2.6496 0.0239 255 200 100
19.4108 9.1883 1.9722 255 200 100
10.6178 1.1391 0.0026 255 200 100
38.0942 17.8750 3.0543 255 200 100
25.4092 9.7903 1.3473 255 200 100
29.1790 -11.4799 4.7832 255 200 100
20.6791 -8.8620 -0.1086 255 200 100
25.1698 -5.2322 3.0220 255 200 100
16.4003 7.0489 1.5369 255 200 100
20.8182 -4.0354 -0.0405 255 200 100
7.3936 -1.6620 -0.0777 255 200 100
8.2089 2.6043 0.0249 255 200 100
7.9789 -0.5707 -0.0216 255 200 100
10.7553 0.2258 -0.0160 255 200 100
29.3438 -13.9239 3.4457 255 200 100
28.3333 -14.0104 5.5799 255 200 100
10.5003 1.8169 0.0115 255 200 100
25.1590 -6.8642 2.4678 255 200 100
15.7070 5.6749 0.0532 255 200 100
27.1341 -2.0565 0.6265 255 200 100
8.7762 -0.7763 -0.0379 255 200 100
14.9864 8.8586 1.2095 255 200 100
12.0200 1.4957 0.0066 255 200 100
24.9815 -5.4776 2.4434 255 200 100
9.7997 4.5663 0.0176 255 200 100
8.6815 -0.0800 -0.0071 255 200 100
8.8798 -1.7482 -0.0927 255 200 100
24.1792 1.9853 0.2271 255 200 100
7.2854 -0.0977 0.0050 255 200 100
13.6190 3.5666 0.0181 255 200 100
25.2007 -5.2251 0.7077 255 200 100
10.8693 -0.5292 -0.0405 255 200 100
9.1401 2.9700 0.0082 255 200 100
8.0338 3.1248 0.0288 255 200 100
17.4151 -2.6486 -0.1054 255 200 100
17.5485 9.3018 3.7673 255 200 100
10.7698 5.9589 0.0385 255 200 100
31.1737 -5.2667 5.4574 255 200 100
30.8960 -9.4350 0.4358 255 200 100
9.8710 4.4048 0.0151 255 200 100
10.0958 3.6759 0.0158 255 200 100
10.8016 -0.0052 -0.0248 255 200 100
28.9843 -11.9713 6.2365 255 200 100
9.8483 -1.3754 -0.0823 255 200 100
12.9197 -2.5786 -0.1695 255 200 100
8.2312 2.5163 0.0251 255 200 100
27.7275 -1.0160 1.2261 255 200 100
20.6546 -2.0000 -0.0064 255 200 100
9.9012 -1.7103 -0.1034 255 200 100
8.4290 1.7684 0.0174 255 200 100
30.8438 -9.4182 1.9027 255 200 100
24.6844 6.3005 0.7586 255 200 100
29.2546 -14.2982 1.9806 255 200 100
28.3504 -14.0225 4.8579 255 200 100
25.0079 -5.6218 0.7156 255 200 100
7.8782 0.2190 0.0101 255 200 100
20.7887 -3.4306 -0.0312 255 200 100
15.1221 8.9282 1.5943 255 200 100
29.3597 -13.9342 2.7097 255 200 100
36.0763 15.1877 2.9345 255 200 100
9.9379 4.2417 0.0131 255 200 100
17.4433 9.1056 1.0973 255 200 100
35.1870 10.2946 2.7881 255 200 100
30.3985 -7.8019 4.0213 255 200 100
30.4484 -10.8258 3.3840 255 200 100
30.6343 3.7289 1.1764 255 200 100
26.4059 -10.5425 -0.0035 255 200 100
30.6034 -7.6809 6.2001 255 200 100
8.5824 0.7820 0.0104 255 200 100
17.5470 -7.6923 -0.2360 255 200 100
8.8343 -3.6051 -0.1968 255 200 100
19.8081 3.8726 0.0720 255 200 100
11.7169 3.0427 0.0221 255 200 100
27.5424 -1.3168 1.2299 255 200 100
13.9440 1.5159 0.0058 255 200 100
17.3737 9.0869 0.6618 255 200 100
9.2856 2.3720 0.0074 255 200 100
11.4139 -4.2086 -0.2625 255 200 100
8.7188 -0.2642 -0.0170 255 200 100
24.9221 -2.0192 0.1663 255 200 100
8.0741 -2.7187 -0.1512 255 200 100
19.8308 3.7598 0.0707 255 200 100
37.7277 10.6173 1.9581 255 200 100
8.8364 -1.1607 -0.0615 255 200 100
7.8886 3.5108 0.0304 255 200 100
25.8540 -4.0285 2.4474 255 200 100
18.7634 6.5882 0.1384 255 200 100
14.7107 -1.8821 -0.1126 255 200 100
8.4572 1.6346 0.0162 255 200 100
9.9926 -3.5183 -0.2078 255 200 100
11.0159 5.6338 0.0205 255 200 100
11.1504 5.2449 0.0209 255 200 100
29.1053 -11.6378 6.2284 255 200 100
18.1557 9.1791 2.4322 255 200 100
11.5602 3.8223 0.0208 255 200 100
11.8201 2.5266 0.0195 255 200 100
30.8609 -9.4267 1.1677 255 200 100
7.2121 -3.0518 -0.1441 255 200 100
8.0594 -1.4800 -0.0715 255 200 100
31.1186 -5.4410 5.4556 255 200 100
30.6757 -10.1319 2.6422 255 200 100
29.7143 -12.8913 1.9542 255 200 100
17.8669 9.1204 0.1750 255 200 100
29.6124 -13.2520 1.2206 255 200 100
28.2114 -14.3409 6.3266 255 200 100
7.3701 -2.0270 -0.0955 255 200 100
20.1973 1.5402 0.0460 255 200 100
26.7508 -6.6802 3.1201 255 200 100
26.0922 -7.4461 1.2723 255 200 100
13.8802 1.8938 0.0109 255 200 100
19.7438 4.0906 0.0763 255 200 100
37.7882 12.9042 4.7316 255 200 100
24.7748 -6.0092 0.7254 255 200 100
7.6968 1.6439 0.0190 255 200 100
15.4390 -5.1395 -0.2922 255 200 100
10.0026 -2.8650 -0.1730 255 200 100
25.6310 10.3833 1.3484 255 200 100
30.9073 -6.1209 5.4507 255 200 100
15.7109 8.9365 1.5790 255 200 100
8.6789 4.1739 0.0213 255 200 100
7.7915 0.8687 0.0230 255 200 100
7.4027 -1.5837 -0.0756 255 200 100
20.3904 0.3052 0.0280 255 200 100
20.6687 -2.1169 -0.0086 255 200 100
13.3913 4.3845 0.0277 255 200 100
11.4705 4.1425 0.0224 255 200 100
20.4548 -0.0366 0.0214 255 200 100
11.3427 -3.7598 -0.2264 255 200 100
24.3614 0.2174 0.2123 255 200 100
29.4699 -13.5751 3.4373 255 200 100
24.7770 -1.4441 0.1786 255 200 100
20.2258 1.4300 0.0435 255 200 100
10.6380 0.9106 0.0018 255 200 100
25.0827 -5.4923 0.7125 255 200 100
40.0611 -7.4806 1.8794 255 200 100
28.0050 -0.5791 3.1158 255 200 100
25.1044 9.0534 0.7456 255 200 100
8.3563 2.0775 0.0203 255 200 100
8.6399 4.2716 0.0213 255 200 100
14.4530 6.9006 2.6484 255 200 100
10.1618 3.3915 0.0177 255 200 100
7.8292 3.6874 0.0283 255 200 100
13.1864 -4.3431 -0.2721 255 200 100
30.9097 -9.4417 2.6337 255 200 100
16.8976 9.0794 3.2708 255 200 100
29.8728 -9.3026 5.4587 255 200 100
8.0990 -2.1169 -0.1156 255 200 100
26.1639 -9.2566 0.0268 255 200 100
30.3603 -7.7943 5.4471 255 200 100
28.9351 -12.1402 6.2424 255 200 100
17.5801 -7.2409 -0.2256 255 200 100
24.2588 0.8999 0.2206 255 200 100
15.6322 5.9419 0.0552 255 200 100
8.4062 1.8558 0.0190 255 200 100
30.7453 -6.6237 5.4482 255 200 100
8.8433 -3.5555 -0.1949 255 200 100
25.6939 -4.2958 2.4462 255 200 100
12.9893 -4.7575 -0.2591 255 200 100
9.8082 -0.9984 -0.0650 255 200 100
30.4616 -10.6344 1.1833 255 200 100
24.4524 -6.3729 2.4447 255 200 100
26.4824 -3.0776 3.0545 255 200 100
27.4899 -1.4586 0.6116 255 200 100
12.4191 -5.9957 -0.2345 255 200 100
28.2957 -0.0801 1.2150 255 200 100
9.5590 0.8655 -0.0065 255 200 100
8.3642 2.0343 0.0206 255 200 100
26.9440 -2.3442 0.6345 255 200 100
30.6828 -9.9416 1.9092 255 200 100
22.8037 9.2353 0.2975 255 200 100
8.1815 2.6922 0.0256 255 200 100
7.5957 2.0856 0.0204 255 200 100
28.5389 -13.5214 4.1227 255 200 100
8.9003 -3.0315 -0.1688 255 200 100
30.7781 -9.7779 0.4404 255 200 100
24.0315 4.0248 0.2359 255 200 100
24.5333 -6.2470 1.3044 255 200 100
8.9374 -2.5686 -0.1476 255 200 100
16.1330 4.4493 0.0299 255 200 100
37.1930 14.2232 2.0215 255 200 100
29.7653 -9.6377 4.7483 255 200 100
9.6924 -0.3113 -0.0309 255 200 100
29.6849 -9.9774 4.0432 255 200 100
7.4799 2.5291 0.0192 255 200 100
24.4636 -6.3695 1.3065 255 200 100
18.4912 6.9616 0.1575 255 200 100
29.4437 0.4031 1.8584 255 200 100
9.9864 -3.7010 -0.2181 255 200 100
10.3635 2.6092 0.0131 255 200 100
20.7868 -5.8759 -0.0627 255 200 100
17.4272 9.1299 3.3033 255 200 100
9.0812 3.1678 0.0091 255 200 100
12.9691 5.9809 0.0293 255 200 100
13.7459 2.5675 0.0202 255 200 100
8.0547 -2.8085 -0.1534 255 200 100
29.4937 -10.4724 4.7615 255 200 100
16.5910 9.0449 2.8255 255 200 100
15.3963 8.9262 2.7789 255 200 100
15.2976 -3.9810 -0.2379 255 200 100
7.9345 3.3810 0.0310 255 200 100
25.7032 10.5873 1.3490 255 200 100
17.6816 -5.2786 -0.1844 255 200 100
10.0046 4.0172 0.0140 255 200 100
10.8203 5.9087 0.0340 255 200 100
26.2313 -3.4958 3.0468 255 200 100
12.5430 6.0299 0.0826 255 200 100
8.5740 0.8264 0.0117 255 200 100
15.3445 8.8869 0.3981 255 200 100
28.9569 -12.1519 4.7996 255 200 100
19.3575 5.1476 0.1021 255 200 100
36.7869 13.0809 2.8886 255 200 100
30.1392 -11.8761 2.6700 255 200 100
9.6021 5.0587 0.0191 255 200 100
8.8535 -1.4024 -0.0732 255 200 100
17.7041 -5.3927 -0.1896 255 200 100
27.9504 -15.2279 4.9040 255 200 100
25.2748 9.5964 0.7390 255 200 100
39.1861 17.1309 1.0930 255 200 100
7.2944 -2.5968 -0.1214 255 200 100
15.0911 8.8707 2.3759 255 200 100
23.7859 5.3683 0.2497 255 200 100
26.6375 -2.7740 1.2497 255 200 100
35.6955 -4.6041 5.1411 255 200 100
14.4165 6.3945 0.1777 255 200 100
11.2023 5.1191 0.0194 255 200 100
24.1826 2.5288 0.2269 255 200 100
7.2033 0.6490 0.0220 255 200 100
7.3956 -1.0647 -0.0483 255 200 100
25.9102 -8.0240 0.0563 255 200 100
38.6025 8.9272 4.6453 255 200 100
11.0685 -4.7044 -0.2302 255 200 100
28.1988 -0.2420 1.2169 255 200 100
8.0113 3.2143 0.0271 255 200 100
9.5736 5.1120 0.0203 255 200 100
8.0533 -1.0872 -0.0545 255 200 100
11.2672 -2.4777 -0.1583 255 200 100
16.6277 2.0034 0.0026 255 200 100
25.5858 -5.6066 0.0992 255 200 100
9.9902 4.0742 0.0134 255 200 100
7.7915 1.1605 0.0145 255 200 100
17.5102 9.4059 3.7718 255 200 100
14.3513 -0.7236 -0.0497 255 200 100
7.3958 -1.0258 -0.0469 255 200 100
7.2202 0.5749 0.0187 255 200 100
7.5634 2.1626 0.0238 255 200 100
7.2235 0.5379 0.0185 255 200 100
25.6598 -5.1697 0.0973 255 200 100
10.1586 -5.0839 1.8925 255 200 100
19.4684 9.1966 2.4541 255 200 100
11.3082 -2.7465 -0.1756 255 200 100
9.9985 -2.2872 -0.1452 255 200 100
7.9312 -3.3968 -0.1745 255 200 100
25.3459 -4.2218 0.1253 255 200 100
39.5668 10.3782 3.8144 255 200 100
20.6838 -2.5862 -0.0136 255 200 100
15.8008 9.2371 4.0452 255 200 100
16.6398 9.0228 1.1340 255 200 100
12.3416 -0.4118 -0.0392 255 200 100
20.0885 2.0949 0.0549 255 200 100
14.3431 -0.6451 -0.0480 255 200 100
15.0321 -2.9460 -0.1764 255 200 100
12.2407 0.2547 -0.0208 255 200 100
23.9417 4.4261 0.2414 255 200 100
7.8557 3.5981 0.0302 255 200 100
26.1456 -3.6318 3.0442 255 200 100
16.7450 0.7173 -0.0062 255 200 100
29.9003 -9.3069 4.0340 255 200 100
14.5459 6.2573 0.1672 255 200 100
46.2147 9.4648 0.8535 255 200 100
16.1299 8.9699 1.1573 255 200 100
7.2907 -0.2110 0.0027 255 200 100
11.3248 -3.0791 -0.1919 255 200 100
20.6826 -2.7024 -0.0145 255 200 100
29.9417 -9.1393 4.7433 255 200 100
23.6375 5.8953 0.2581 255 200 100
36.1717 10.8391 1.9635 255 200 100
8.1021 -2.4892 -0.1411 255 200 100
14.2270 -0.0160 -0.0290 255 200 100
35.7567 13.2800 6.3687 255 200 100
13.5491 3.7035 0.0244 255 200 100
11.9226 1.8140 0.0176 255 200 100
37.2877 11.3609 3.7432 255 200 100
14.6745 8.6910 3.1263 255 200 100
19.6017 4.5154 0.0858 255 200 100
10.9436 -4.8605 -0.2182 255 200 100
16.3134 4.0184 0.0164 255 200 100
16.8528 9.5285 3.7315 255 200 100
9.5711 0.7124 -0.0071 255 200 100
11.3251 -3.0136 -0.1893 255 200 100
16.5561 2.6488 0.0056 255 200 100
12.5594 -1.4505 -0.0867 255 200 100
8.8459 -1.3535 -0.0698 255 200 100
24.2819 0.7614 0.2188 255 200 100
20.8001 -3.5512 -0.0335 255 200 100
8.6408 0.3764 0.0017 255 200 100
14.1493 -7.0900 -0.1999 255 200 100
7.9481 -3.3561 -0.1748 255 200 100
8.0191 -3.0378 -0.1635 255 200 100
17.6868 -3.8075 -0.1547 255 200 100
12.4515 -5.9278 -0.2356 255 200 100
20.0017 2.6500 0.0610 255 200 100
9.7107 4.7827 0.0191 255 200 100
25.4081 -4.8387 3.0263 255 200 100
30.5760 -10.2852 1.1787 255 200 100
29.1017 -14.8467 1.2458 255 200 100
20.5635 -0.7264 0.0091 255 200 100
24.9159 -5.7510 0.7196 255 200 100
37.4271 15.0207 2.9545 255 200 100
8.8292 -1.1126 -0.0585 255 200 100
8.1068 -1.9351 -0.1068 255 200 100
8.8120 -3.7662 -0.2050 255 200 100
7.1905 -3.1323 -0.1470 255 200 100
16.8911 9.3039 3.7178 255 200 100
10.9883 -4.8122 -0.2229 255 200 100
9.3030 2.2715 0.0080 255 200 100
8.7804 3.9947 0.0149 255 200 100
25.4288 -4.8272 0.6982 255 200 100
29.9994 -8.9744 4.7419 255 200 100
13.1353 -4.2431 -0.2600 255 200 100
10.4035 2.4426 0.0115 255 200 100
11.7754 6.4615 0.1623 255 200 100
16.8437 9.7769 3.7494 255 200 100
14.1227 0.5258 -0.0142 255 200 100
28.1011 -0.3979 1.2187 255 200 100
22.9867 8.4234 0.2903 255 200 100
7.4776 2.4855 0.0230 255 200 100
30.4486 -7.6340 4.0201 255 200 100
26.5731 -11.3176 -0.0238 255 200 100
13.9648 1.3625 0.0041 255 200 100
7.2848 -0.1362 0.0050 255 200 100
10.1621 -5.0147 1.8911 255 200 100
20.7113 -8.4631 -0.1030 255 200 100
16.4328 3.2864 0.0129 255 200 100
8.4646 1.5900 0.0161 255 200 100
23.3326 7.0881 0.2740 255 200 100
15.0339 -3.0345 -0.1785 255 200 100
11.3241 -3.2794 -0.2004 255 200 100
16.6368 1.4481 0.0045 255 200 100
30.4088 2.4915 1.1756 255 200 100
11.1083 5.3739 0.0205 255 200 100
28.8329 -12.4787 5.5260 255 200 100
25.1385 8.7230 1.3426 255 200 100
30.1503 -11.6905 0.4645 255 200 100
16.8602 0.1589 -0.0198 255 200 100
7.6119 2.0049 0.0212 255 200 100
24.8478 -5.8809 0.7224 255 200 100
12.3824 -0.6137 -0.0474 255 200 100
15.5134 8.9173 1.9851 255 200 100
31.9874 3.9099 0.4176 255 200 100
35.5138 9.3100 2.7739 255 200 100
30.9565 -5.9465 5.4511 255 200 100
28.1750 -14.5294 4.8759 255 200 100
29.1559 -11.4704 5.4974 255 200 100
8.4411 1.7249 0.0164 255 200 100
11.4585 4.2800 0.0186 255 200 100
30.0161 -8.7973 6.1750 255 200 100
20.8207 -4.5214 -0.0466 255 200 100
15.8540 5.1398 0.0483 255 200 100
8.7635 -3.9699 -0.2118 255 200 100
9.8981 4.3534 0.0135 255 200 100
12.7695 -5.2389 -0.2479 255 200 100
8.7269 -0.4016 -0.0203 255 200 100
12.9823 -2.8868 -0.1882 255 200 100
30.7060 -6.7892 4.7312 255 200 100
37.5242 -4.4260 5.3083 255 200 100
30.4953 3.3183 3.2594 255 200 100
17.3418 9.0891 0.2213 255 200 100
14.4650 -1.1298 -0.0691 255 200 100
30.0152 -12.0275 1.2023 255 200 100
29.6336 -13.4574 3.4392 255 200 100
10.3482 2.6643 0.0139 255 200 100
29.0271 -15.0112 1.9952 255 200 100
37.6002 12.3675 4.6979 255 200 100
7.1758 -3.2182 -0.1525 255 200 100
15.8975 8.9503 1.1679 255 200 100
29.6092 -13.2489 1.9606 255 200 100
36.4031 15.0797 2.9372 255 200 100
35.3939 8.8472 2.7620 255 200 100
34.7507 12.0903 3.6590 255 200 100
7.8036 0.9535 0.0176 255 200 100
10.7612 -5.0621 -0.1997 255 200 100
8.6296 4.3266 0.0190 255 200 100
20.6966 -8.7287 -0.1073 255 200 100
17.2313 9.3763 3.7486 255 200 100
14.3080 6.7276 0.1800 255 200 100
25.4180 9.9810 0.7333 255 200 100
15.9273 9.0944 3.6306 255 200 100
30.1620 2.9409 3.2392 255 200 100
15.9905 8.9707 1.9837 255 200 100
37.6907 14.5687 4.7974 255 200 100
7.7529 1.3610 0.0171 255 200 100
12.6935 -1.8883 -0.1166 255 200 100
12.2871 -0.0770 -0.0288 255 200 100
49.0648 -4.4372 8.6707 255 200 100
12.3718 -0.5464 -0.0451 255 200 100
9.9720 -3.2088 -0.1854 255 200 100
12.8217 -2.1959 -0.1442 255 200 100
8.9223 -2.8265 -0.1601 255 200 100
29.6776 -13.0756 1.2177 255 200 100
20.8126 -4.8878 -0.0507 255 200 100
15.4347 -5.4267 -0.3014 255 200 100
11.4086 -4.1359 -0.2576 255 200 100
8.0211 -3.0878 -0.1683 255 200 100
8.5592 0.8700 0.0143 255 200 100
18.1178 9.1788 1.9777 255 200 100
29.7511 -9.6350 5.4615 255 200 100
29.0846 -14.8342 1.9915 255 200 100
20.6012 -9.8060 -0.1228 255 200 100
7.1891 0.7593 0.0233 255 200 100
7.1928 0.8357 0.0201 255 200 100
17.1031 9.0604 0.6800 255 200 100
18.3981 9.3800 3.8380 255 200 100
30.2355 -11.3288 1.1926 255 200 100
8.7539 -4.0241 -0.2145 255 200 100
15.5707 8.9057 0.3783 255 200 100
35.6353 9.7790 2.7863 255 200 100
36.5272 -4.5162 6.0604 255 200 100
28.6524 -12.9861 5.5408 255 200 100
8.1058 -2.0719 -0.1145 255 200 100
20.6502 -9.1244 -0.1117 255 200 100
28.5997 -13.3550 4.1183 255 200 100
50.7653 -3.1085 6.5323 255 200 100
7.2496 0.1268 0.0155 255 200 100
10.6521 0.7959 0.0003 255 200 100
30.2113 -11.5194 0.4622 255 200 100
17.5372 9.1214 1.9792 255 200 100
29.3684 -10.7990 6.2062 255 200 100
8.8956 -1.8493 -0.1006 255 200 100
9.1125 3.0687 0.0084 255 200 100
23.8814 4.9721 0.2442 255 200 100
7.3434 -0.5933 -0.0186 255 200 100
49.0201 -3.8703 8.6567 255 200 100
9.6176 5.0002 0.0205 255 200 100
30.5651 -7.3022 4.0193 255 200 100
14.9692 -2.8478 -0.1656 255 200 100
16.7802 9.3417 4.1462 255 200 100
12.8479 -2.2724 -0.1502 255 200 100
7.3027 -2.6436 -0.1279 255 200 100
25.6204 10.5708 0.7254 255 200 100
10.4729 1.9854 0.0123 255 200 100
14.4697 -6.2748 -0.2057 255 200 100
26.7110 -12.2850 -0.0448 255 200 100
15.0745 8.7098 3.1487 255 200 100
7.8339 0.5045 0.0190 255 200 100
7.9944 -3.1254 -0.1651 255 200 100
30.3097 -11.3585 2.6612 255 200 100
15.6465 8.8285 3.1869 255 200 100
8.7286 -0.5406 -0.0226 255 200 100
13.9352 1.6683 0.0056 255 200 100
8.8609 -1.5476 -0.0802 255 200 100
43.6671 10.9141 5.0461 255 200 100
25.0549 -5.4945 1.8697 255 200 100
10.5454 1.5345 0.0094 255 200 100
7.5506 2.2447 0.0216 255 200 100
29.0441 -11.8079 5.5059 255 200 100
8.7570 4.0406 0.0161 255 200 100
7.5266 2.3682 0.0192 255 200 100
38.3406 10.5120 3.7643 255 200 100
29.3338 -14.1364 1.2342 255 200 100
10.1353 3.5079 0.0169 255 200 100
30.0817 -12.0485 2.6730 255 200 100
12.3550 -0.4789 -0.0419 255 200 100
17.8942 9.0049 0.1749 255 200 100
30.3521 -11.1757 3.3906 255 200 100
20.6398 -1.5346 -0.0020 255 200 100
20.5980 -9.9466 -0.1258 255 200 100
7.7996 1.0366 0.0163 255 200 100
28.6442 0.4103 0.5630 255 200 100
30.1773 -11.5064 1.1951 255 200 100
28.0916 -0.4200 3.1200 255 200 100
25.2329 9.4181 0.7405 255 200 100
29.2967 1.5307 3.1851 255 200 100
36.2251 10.2836 6.2559 255 200 100
30.8267 -7.0070 6.2018 255 200 100
16.7956 9.0256 0.2700 255 200 100
7.3184 -2.5197 -0.1210 255 200 100
7.8936 0.0140 0.0064 255 200 100
18.9687 6.0762 0.1267 255 200 100
10.6223 1.0823 0.0026 255 200 100
10.8428 -0.2963 -0.0338 255 200 100
7.8795 0.1771 0.0100 255 200 100
10.2253 3.1688 0.0162 255 200 100
16.1567 7.3111 0.3591 255 200 100
25.6487 -4.4446 3.0315 255 200 100
9.7383 4.7314 0.0177 255 200 100
7.2396 -2.9282 -0.1386 255 200 100
10.5048 1.7599 0.0120 255 200 100
14.4566 6.7896 3.0005 255 200 100
24.6520 -6.5749 1.8797 255 200 100
11.4420 4.3470 0.0183 255 200 100
13.1244 -3.5322 -0.2316 255 200 100
20.7967 -6.0040 -0.0656 255 200 100
38.3018 -4.3106 7.1590 255 200 100
25.2771 -3.9162 0.1319 255 200 100
37.0382 13.8906 2.9153 255 200 100
14.2727 -6.7597 -0.2008 255 200 100
43.7816 10.6815 5.0466 255 200 100
13.5388 3.8626 0.0219 255 200 100
14.4899 -1.2112 -0.0734 255 200 100
15.4232 8.8969 1.1895 255 200 100
25.4930 -4.7045 3.0281 255 200 100
29.6400 -9.9607 6.1898 255 200 100
29.3866 -13.9523 1.2315 255 200 100
12.0266 1.2322 0.0087 255 200 100
11.0963 5.4434 0.0187 255 200 100
13.9906 1.1353 0.0020 255 200 100
10.0347 3.9023 0.0149 255 200 100
31.7230 -4.9939 5.5140 255 200 100
15.7634 8.9332 2.3875 255 200 100
26.2968 -9.6442 0.0137 255 200 100
9.4734 1.4210 0.0006 255 200 100
10.0283 -2.5235 -0.1617 255 200 100
20.0493 2.3152 0.0579 255 200 100
12.9036 -2.5003 -0.1649 255 200 100
17.6558 -4.3200 -0.1608 255 200 100
7.9678 -3.3136 -0.1756 255 200 100
10.2947 2.8886 0.0152 255 200 100
10.7361 0.3416 -0.0127 255 200 100
30.5209 -7.2948 5.4461 255 200 100
17.3796 9.1234 2.8570 255 200 100
14.7345 -1.9696 -0.1173 255 200 100
15.6028 8.9094 0.7804 255 200 100
11.4166 4.4081 0.0196 255 200 100
15.0375 -5.5630 -0.2532 255 200 100
10.2714 3.0031 0.0149 255 200 100
9.5499 0.9155 -0.0053 255 200 100
9.6864 4.8359 0.0198 255 200 100
29.6451 1.5978 0.5198 255 200 100
32.7386 -4.9791 6.3976 255 200 100
8.9427 3.5569 0.0130 255 200 100
34.8921 10.4197 2.7847 255 200 100
13.0316 -3.1251 -0.2034 255 200 100
11.1462 -1.9468 -0.1192 255 200 100
20.2799 0.9804 0.0388 255 200 100
9.3941 1.8730 0.0039 255 200 100
25.1654 9.2314 0.7432 255 200 100
24.5840 -6.1170 2.4437 255 200 100
7.3428 -2.3137 -0.1101 255 200 100
26.0649 -7.4388 2.4967 255 200 100
10.4842 1.9296 0.0116 255 200 100
28.8228 -12.4728 6.2527 255 200 100
8.2444 2.4715 0.0248 255 200 100
12.7705 -2.0422 -0.1324 255 200 100
16.6182 1.8173 0.0048 255 200 100
28.6020 -13.1481 6.2768 255 200 100
24.7261 -1.1649 0.1832 255 200 100
26.2794 -3.7790 0.6616 255 200 100
8.0960 -2.1616 -0.1176 255 200 100
30.8994 -8.1205 3.3336 255 200 100
13.2956 4.8442 0.0266 255 200 100
29.4048 1.7008 3.1915 255 200 100
7.2723 -0.0602 0.0089 255 200 100
30.7945 -9.5897 1.1701 255 200 100
49.0441 -3.5639 6.3743 255 200 100
22.8326 8.6562 0.2993 255 200 100
28.1535 -0.3881 0.5836 255 200 100
36.0302 14.6165 4.6965 255 200 100
24.9362 8.5098 0.7521 255 200 100
9.6707 -0.1541 -0.0253 255 200 100
30.7600 -6.6217 4.7313 255 200 100
29.1980 -14.4806 1.9842 255 200 100
24.9837 -5.4741 1.2915 255 200 100
18.2127 9.5045 4.7688 255 200 100
8.1152 -2.3055 -0.1317 255 200 100
8.9059 -2.0011 -0.1100 255 200 100
7.2502 0.3897 0.0133 255 200 100
37.6434 16.1150 2.9909 255 200 100
9.2238 2.6737 0.0063 255 200 100
13.8382 7.9764 0.1906 255 200 100
12.2587 0.1230 -0.0238 255 200 100
7.9592 3.3423 0.0286 255 200 100
8.0983 -2.5363 -0.1436 255 200 100
14.3795 6.4728 0.1795 255 200 100
8.8196 3.8976 0.0142 255 200 100
29.8486 -9.4794 4.0365 255 200 100
8.9552 -2.4712 -0.1460 255 200 100
7.2562 0.0898 0.0137 255 200 100
18.0536 8.3367 0.1736 255 200 100
8.0772 3.0430 0.0252 255 200 100
33.2534 -4.8542 4.9192 255 200 100
14.6838 -1.7971 -0.1077 255 200 100
20.6685 -2.3520 -0.0103 255 200 100
16.1154 9.1881 4.0702 255 200 100
14.4394 6.5059 2.6307 255 200 100
15.4441 -5.3316 -0.2994 255 200 100
26.5621 -12.9544 -0.0433 255 200 100
14.9642 -2.7596 -0.1632 255 200 100
8.8455 -1.2583 -0.0666 255 200 100
17.6638 -4.2156 -0.1596 255 200 100
18.1508 7.6523 0.1769 255 200 100
25.6806 -6.8549 0.0826 255 200 100
13.0637 5.7663 0.0252 255 200 100
30.0813 -8.6352 6.1754 255 200 100
7.2110 0.6113 0.0206 255 200 100
30.2388 -11.5197 3.3966 255 200 100
12.3339 -0.3431 -0.0376 255 200 100
14.5241 6.7939 1.2261 255 200 100
28.8462 -12.4920 4.8088 255 200 100
7.9894 -0.6967 -0.0270 255 200 100
29.8251 2.3992 3.2176 255 200 100
20.8149 -5.1333 -0.0543 255 200 100
7.3972 -1.6227 -0.0764 255 200 100
30.6814 -10.1300 3.3739 255 200 100
9.6963 -0.3628 -0.0321 255 200 100
26.1220 -3.6134 1.2619 255 200 100
18.0125 9.1586 1.0713 255 200 100
15.6428 6.5271 0.7981 255 200 100
16.2297 7.2179 0.7536 255 200 100
14.3208 -0.5660 -0.0444 255 200 100
30.1800 2.9830 1.1830 255 200 100
26.0631 -3.7677 3.0419 255 200 100
23.5348 6.2937 0.2637 255 200 100
27.9596 -0.7024 0.5918 255 200 100
35.9260 9.6371 2.7895 255 200 100
29.4482 -10.6416 4.7654 255 200 100
48.9841 -3.5908 8.6483 255 200 100
8.9386 -2.3120 -0.1334 255 200 100
38.1127 13.9993 4.7985 255 200 100
8.5705 4.4712 0.0188 255 200 100
30.7783 -7.1762 6.2021 255 200 100
35.7009 14.9578 4.6927 255 200 100
7.9168 -0.0692 0.0002 255 200 100
24.8357 -5.7313 1.2957 255 200 100
37.5004 15.2975 2.9639 255 200 100
7.3473 -2.2296 -0.1046 255 200 100
37.1637 13.7322 2.0122 255 200 100
17.5635 -7.4673 -0.2307 255 200 100
30.5326 -10.6582 3.3826 255 200 100
18.2463 9.1711 0.6032 255 200 100
24.3964 0.0821 0.2096 255 200 100
10.4368 2.2141 0.0125 255 200 100
17.4182 -8.5882 -0.2517 255 200 100
30.3413 -7.9735 6.1780 255 200 100
13.0540 -4.6994 -0.2666 255 200 100
41.8287 9.2505 2.9109 255 200 100
11.6305 3.4283 0.0237 255 200 100
7.9935 -3.2240 -0.1736 255 200 100
30.3154 -11.3613 3.3948 255 200 100
28.4360 -13.6617 5.5653 255 200 100
8.6337 0.4665 0.0026 255 200 100
14.0573 0.8317 -0.0058 255 200 100
13.1419 5.4567 0.0263 255 200 100
8.0924 -2.5828 -0.1455 255 200 100
19.5320 4.7309 0.0903 255 200 100
28.4873 0.2032 3.1399 255 200 100
28.3848 -13.8390 5.5727 255 200 100
16.9503 -0.1191 -0.0309 255 200 100
8.1006 -1.8899 -0.1026 255 200 100
11.3295 -3.1465 -0.1956 255 200 100
18.0230 8.4446 0.1743 255 200 100
13.9564 1.2064 0.0064 255 200 100
9.2414 2.5709 0.0076 255 200 100
16.6176 2.2831 0.0017 255 200 100
24.1994 1.4415 0.2254 255 200 100
30.2914 3.1656 1.1814 255 200 100
9.8732 -1.5417 -0.0923 255 200 100
31.0406 -6.3281 6.2051 255 200 100
20.8142 -3.7954 -0.0374 255 200 100
34.7547 -4.6921 5.8580 255 200 100
11.4241 -4.2838 -0.2684 255 200 100
49.0711 -3.5586 5.2475 255 200 100
30.7376 -9.7694 1.9070 255 200 100
29.9214 -12.3885 0.4733 255 200 100
11.2337 -2.2782 -0.1455 255 200 100
27.8635 -0.8556 0.5958 255 200 100
29.4877 -13.5938 1.9670 255 200 100
25.8518 -7.6888 0.0635 255 200 100
20.8014 -6.2611 -0.0702 255 200 100
12.9174 6.0450 0.0335 255 200 100
9.6581 -0.0534 -0.0222 255 200 100
7.2480 -2.8429 -0.1323 255 200 100
31.1522 -5.6186 4.0220 255 200 100
12.2672 0.0571 -0.0252 255 200 100
29.7170 -9.8055 4.7512 255 200 100
20.7577 -3.3035 -0.0270 255 200 100
28.8991 -12.3237 4.8040 255 200 100
30.1196 -8.6430 4.0272 255 200 100
29.6272 -10.1481 4.0457 255 200 100
8.8500 -3.5014 -0.1921 255 200 100
30.6883 -9.9413 1.1743 255 200 100
11.0319 -1.4374 -0.0852 255 200 100
16.2816 4.1083 0.0186 255 200 100
30.7138 -9.9535 0.4429 255 200 100
16.6459 1.5410 0.0030 255 200 100
14.2483 6.9936 0.1786 255 200 100
7.8693 -3.6236 -0.1817 255 200 100
30.3379 -7.9668 4.0218 255 200 100
9.5883 0.5611 -0.0092 255 200 100
30.4980 -10.6462 0.4511 255 200 100
9.9898 -3.3344 -0.1962 255 200 100
11.3151 -2.8130 -0.1794 255 200 100
11.0636 -1.6251 -0.0955 255 200 100
16.3473 3.8366 0.0153 255 200 100
8.8842 -3.2413 -0.1801 255 200 100
30.1328 -8.4658 5.4494 255 200 100
8.3350 2.1668 0.0207 255 200 100
29.9214 -9.1299 5.4559 255 200 100
15.2436 -3.6964 -0.2230 255 200 100
17.1141 9.0990 2.8465 255 200 100
15.5549 6.7070 0.4229 255 200 100
28.1974 -0.2695 3.1252 255 200 100
16.6370 2.1000 0.0008 255 200 100
17.5057 -3.0622 -0.1217 255 200 100
16.0507 9.5365 3.6733 255 200 100
17.3403 -9.1643 -0.2637 255 200 100
12.7428 6.0437 0.0562 255 200 100
17.5335 -7.8067 -0.2381 255 200 100
28.3996 0.0781 1.2130 255 200 100
38.5349 -4.3227 5.4009 255 200 100
31.0201 -6.5093 6.2090 255 200 100
8.7909 -0.8243 -0.0424 255 200 100
29.0672 -11.8181 4.7911 255 200 100
8.1049 -2.4446 -0.1387 255 200 100
15.6232 8.9457 2.7875 255 200 100
9.7646 -0.7314 -0.0510 255 200 100
18.0900 9.1840 1.5214 255 200 100
9.8934 -1.6547 -0.1000 255 200 100
24.2959 0.6266 0.2176 255 200 100
8.0843 -2.6747 -0.1503 255 200 100
15.8298 5.2283 0.0492 255 200 100
7.3730 -0.9436 -0.0373 255 200 100
8.5597 0.9168 0.0133 255 200 100
9.2561 2.5222 0.0068 255 200 100
30.6676 -10.1291 0.4446 255 200 100
30.6175 -7.1289 4.0185 255 200 100
27.0286 -2.1999 0.6310 255 200 100
20.4968 -10.9199 -0.1406 255 200 100
24.1832 2.1213 0.2269 255 200 100
9.6523 -0.0009 -0.0209 255 200 100
28.5852 0.3678 3.1451 255 200 100
25.5110 -4.6961 0.6948 255 200 100
16.6212 1.9100 0.0039 255 200 100
17.4267 -8.4715 -0.2485 255 200 100
35.7422 15.0096 3.8060 255 200 100
9.6319 0.2026 -0.0165 255 200 100
9.6402 4.9478 0.0202 255 200 100
27.6943 -4.7999 1.8644 255 200 100
40.3104 -7.3006 1.8783 255 200 100
28.9807 -12.1690 4.0865 255 200 100
30.3525 -10.9858 1.1878 255 200 100
24.4528 -6.3698 1.8778 255 200 100
17.6328 9.4379 4.6944 255 200 100
15.1476 -3.3189 -0.2006 255 200 100
30.6384 -10.1212 1.1763 255 200 100
11.3880 -4.0577 -0.2498 255 200 100
17.5779 -7.0118 -0.2186 255 200 100
23.2260 7.4868 0.2793 255 200 100
24.4104 -0.0538 0.2083 255 200 100
8.9486 -2.4181 -0.1415 255 200 100
25.0150 -5.4894 3.0196 255 200 100
14.3934 -0.8854 -0.0568 255 200 100
29.0080 -11.9832 4.7948 255 200 100
29.9767 -12.2072 2.6750 255 200 100
26.5173 -3.9782 1.8600 255 200 100
36.8464 12.8997 1.9975 255 200 100
15.1497 8.8622 0.8107 255 200 100
17.3543 -9.0479 -0.2610 255 200 100
11.2385 4.9904 0.0202 255 200 100
30.9617 -9.2714 3.3633 255 200 100
25.3794 -4.5238 0.1210 255 200 100
11.9953 6.1639 0.1474 255 200 100
20.7698 -7.0209 -0.0804 255 200 100
17.6585 -4.9502 -0.1743 255 200 100
10.6471 0.8543 0.0007 255 200 100
30.7930 -9.5916 1.9048 255 200 100
10.1894 3.2795 0.0179 255 200 100
14.8384 -2.3152 -0.1374 255 200 100
29.4708 -10.6549 4.0547 255 200 100
7.8634 0.3013 0.0135 255 200 100
9.9573 -4.3864 -0.2596 255 200 100
19.0682 9.1877 4.3568 255 200 100
17.5065 -7.9114 -0.2385 255 200 100
8.9273 -2.8825 -0.1649 255 200 100
38.4263 -4.3143 6.2778 255 200 100
11.9762 1.6231 0.0119 255 200 100
24.6766 -1.0248 0.1871 255 200 100
9.4932 1.3712 -0.0024 255 200 100
25.6636 -4.4297 0.6884 255 200 100
12.3159 -0.2782 -0.0343 255 200 100
18.1235 9.4764 4.2865 255 200 100
20.6480 -1.8839 -0.0050 255 200 100
13.2796 4.9234 0.0263 255 200 100
20.2932 0.8685 0.0375 255 200 100
30.6334 -7.5075 6.1965 255 200 100
49.1827 -4.6915 5.2638 255 200 100
30.3599 -7.7957 4.7313 255 200 100
7.8863 -3.5811 -0.1816 255 200 100
7.8234 0.5851 0.0205 255 200 100
8.6153 0.5120 0.0065 255 200 100
26.3713 -3.9475 0.6570 255 200 100
15.8962 4.8616 0.0491 255 200 100
29.4343 -13.7703 1.9703 255 200 100
11.9411 1.7493 0.0156 255 200 100
29.3170 -10.9659 6.2104 255 200 100
28.2635 -14.1691 6.3183 255 200 100
8.5978 4.3679 0.0218 255 200 100
26.9161 -2.3695 3.0695 255 200 100
23.4702 6.5576 0.2670 255 200 100
19.4127 5.0442 0.0981 255 200 100
30.1075 -11.6678 1.9338 255 200 100
7.8729 3.5555 0.0301 255 200 100
14.4199 -0.9658 -0.0612 255 200 100
10.0133 -2.6929 -0.1666 255 200 100
18.3903 9.2109 1.5141 255 200 100
36.4477 -4.5158 6.9037 255 200 100
32.5027 -4.9250 4.1032 255 200 100
30.9687 -9.0756 1.1636 255 200 100
8.6541 0.2397 -0.0007 255 200 100
24.1844 2.2571 0.2268 255 200 100
30.8749 -6.2875 4.7327 255 200 100
18.6152 9.2191 1.0438 255 200 100
14.9669 8.9288 1.9888 255 200 100
26.3485 -13.5980 -0.0375 255 200 100
13.8833 7.7982 0.1920 255 200 100
9.0970 3.1207 0.0086 255 200 100
8.9095 -1.9526 -0.1086 255 200 100
29.8312 -12.5461 1.9482 255 200 100
13.6667 3.3367 0.0167 255 200 100
24.1907 1.8467 0.2263 255 200 100
15.4143 -4.7529 -0.2764 255 200 100
8.1163 2.9116 0.0257 255 200 100
13.1424 5.3720 0.0293 255 200 100
8.8358 -1.0635 -0.0587 255 200 100
26.2891 -3.3347 1.2578 255 200 100
27.7257 -1.0406 3.1028 255 200 100
25.9022 -4.0377 3.0377 255 200 100
19.8723 3.5438 0.0683 255 200 100
15.6616 8.7569 2.3793 255 200 100
20.8240 -4.1566 -0.0425 255 200 100
7.1814 1.0988 0.0142 255 200 100
8.0437 -1.3026 -0.0600 255 200 100
25.5134 10.3575 0.7298 255 200 100
38.4517 9.1716 2.8350 255 200 100
11.7348 2.9779 0.0211 255 200 100
43.3510 11.5373 8.1555 255 200 100
30.5960 -7.1285 4.7312 255 200 100
9.9846 -3.5777 -0.2099 255 200 100
9.5706 0.7648 -0.0076 255 200 100
29.8071 -9.4664 6.1834 255 200 100
7.4614 2.6090 0.0177 255 200 100
8.1094 -2.2589 -0.1272 255 200 100
14.4517 6.4973 2.9845 255 200 100
7.8119 0.7076 0.0213 255 200 100
7.5183 2.3217 0.0245 255 200 100
29.7593 -13.1097 2.6940 255 200 100
14.8157 -2.2312 -0.1328 255 200 100
24.2408 1.1694 0.2222 255 200 100
7.6197 1.9645 0.0216 255 200 100
9.9736 4.1303 0.0132 255 200 100
8.8260 -1.0167 -0.0552 255 200 100
17.3650 9.4119 4.6606 255 200 100
46.2085 9.7446 0.8557 255 200 100
20.6598 -2.2351 -0.0086 255 200 100
9.8260 -1.2113 -0.0734 255 200 100
7.3389 -0.5550 -0.0164 255 200 100
12.0597 6.1126 0.1414 255 200 100
14.1738 0.2920 -0.0212 255 200 100
12.0663 1.0380 0.0041 255 200 100
16.2298 8.9899 1.9828 255 200 100
28.0516 -14.8628 6.3527 255 200 100
7.2054 -3.0927 -0.1466 255 200 100
7.4071 -1.4236 -0.0681 255 200 100
29.9990 -12.0205 1.9394 255 200 100
17.4483 -8.3623 -0.2472 255 200 100
43.6465 10.4989 0.9210 255 200 100
8.8888 -3.1874 -0.1772 255 200 100
8.8605 -1.4530 -0.0766 255 200 100
49.0022 -3.5765 7.5032 255 200 100
20.1818 1.6547 0.0473 255 200 100
15.5321 8.9096 2.3834 255 200 100
29.9795 -8.9710 5.4549 255 200 100
7.3375 -2.3970 -0.1156 255 200 100
20.2258 1.3176 0.0436 255 200 100
24.0903 3.7595 0.2323 255 200 100
25.1367 -5.2159 1.2873 255 200 100
28.7904 -12.6593 4.8135 255 200 100
28.7425 -12.8304 4.8192 255 200 100
9.6311 0.1532 -0.0163 255 200 100
25.3804 -4.8282 2.4445 255 200 100
9.3833 1.9226 0.0045 255 200 100
29.4483 -13.7793 1.2286 255 200 100
23.9941 4.1559 0.2383 255 200 100
9.7450 -0.6247 -0.0454 255 200 100
17.6124 -6.6842 -0.2129 255 200 100
8.5466 0.9591 0.0155 255 200 100
26.4741 -11.6283 -0.0208 255 200 100
20.6281 -9.5324 -0.1189 255 200 100
7.9739 -0.4433 -0.0182 255 200 100
49.1415 -4.6936 6.3941 255 200 100
29.8038 -12.9227 3.4263 255 200 100
28.3558 -0.0740 0.5751 255 200 100
39.7252 10.4911 1.0128 255 200 100
13.9312 1.5887 0.0069 255 200 100
24.9551 -2.3021 0.1628 255 200 100
7.3875 -1.9485 -0.0947 255 200 100
29.0930 1.1950 3.1732 255 200 100
27.8171 -0.8893 3.1070 255 200 100
42.6266 10.7302 1.9552 255 200 100
10.8660 -0.4711 -0.0394 255 200 100
29.1375 -14.6551 1.9878 255 200 100
37.2673 14.7037 2.9424 255 200 100
19.0803 5.8769 0.1191 255 200 100
7.8019 0.7473 0.0231 255 200 100
10.9461 5.7464 0.0246 255 200 100
16.8948 0.0695 -0.0240 255 200 100
30.4052 3.3552 1.1797 255 200 100
25.5786 -7.1354 1.2831 255 200 100
34.2864 10.5885 5.2338 255 200 100
11.2908 4.8655 0.0183 255 200 100
48.9782 -3.2980 7.4978 255 200 100
11.0813 -1.6887 -0.1003 255 200 100
25.2395 -3.6223 0.1363 255 200 100
24.8385 -1.7297 0.1733 255 200 100
17.1672 9.0803 1.1099 255 200 100
14.7800 -5.6482 -0.2220 255 200 100
26.9969 -2.2055 1.2416 255 200 100
8.5271 1.2791 0.0119 255 200 100
26.3034 -13.7627 -0.0368 255 200 100
19.6701 4.3027 0.0814 255 200 100
19.2005 5.4479 0.1132 255 200 100
19.3063 5.2483 0.1057 255 200 100
30.0639 -11.8513 1.9367 255 200 100
7.8031 3.7775 0.0260 255 200 100
30.2041 -8.2961 4.7347 255 200 100
10.7088 0.5139 -0.0082 255 200 100
20.5191 -10.7843 -0.1392 255 200 100
24.1888 2.3934 0.2265 255 200 100
8.5379 1.1880 0.0119 255 200 100
15.8512 8.9702 2.7964 255 200 100
13.3049 4.7650 0.0279 255 200 100
8.0747 -1.6586 -0.0839 255 200 100
25.6029 -5.0092 0.1023 255 200 100
26.6129 -12.7944 -0.0446 255 200 100
24.2552 1.0349 0.2211 255 200 100
9.9397 -1.9382 -0.1193 255 200 100
24.7950 7.9925 0.7574 255 200 100
13.9645 1.2859 0.0047 255 200 100
25.9878 -7.4180 1.8869 255 200 100
24.1288 3.4865 0.2300 255 200 100
29.5357 -10.2975 5.4721 255 200 100
12.3460 -6.1272 -0.2310 255 200 100
19.6534 9.2310 3.9267 255 200 100
29.3332 -14.1216 3.4530 255 200 100
11.8351 2.3966 0.0201 255 200 100
7.9914 3.2538 0.0285 255 200 100
34.7629 12.0721 4.5038 255 200 100
29.6892 -13.2763 3.4346 255 200 100
29.1934 1.3622 3.1790 255 200 100
29.6481 -9.9678 5.4671 255 200 100
17.6480 -4.7339 -0.1684 255 200 100
16.1309 9.4615 3.6733 255 200 100
29.8795 1.4431 0.5086 255 200 100
28.4420 -13.6617 6.2981 255 200 100
13.0933 5.6939 0.0241 255 200 100
27.7714 2.1178 0.7537 255 40 40
27.7724 2.0582 0.7537 255 40 40
27.7734 1.9986 0.7537 255 40 40
27.7744 1.9390 0.7537 255 40 40
27.7754 1.8794 0.7537 255 40 40
27.7763 1.8198 0.7537 255 40 40
27.7773 1.7602 0.7537 255 40 40
27.7783 1.7006 0.7537 255 40 40
27.7793 1.6410 0.7537 255 40 40
27.7803 1.5814 0.7537 255 40 40
27.7813 1.5218 0.7537 255 40 40
27.7823 1.4622 0.7537 255 40 40
27.7833 1.4026 0.7537 255 40 40
27.7842 1.3430 0.7537 255 40 40
27.7852 1.2834 0.7537 255 40 40
27.7862 1.2238 0.7537 255 40 40
27.7872 1.1642 0.7537 255 40 40
27.7882 1.1046 0.7537 255 40 40
27.7892 1.0450 0.7537 255 40 40
27.7902 0.9854 0.7537 255 40 40
27.7911 0.9258 0.7537 255 40 40
27.7921 0.8662 0.7537 255 40 40
27.7931 0.8066 0.7537 255 40 40
27.7941 0.7470 0.7537 255 40 40
27.7951 0.6874 0.7537 255 40 40
27.7961 0.6278 0.7537 255 40 40
27.7971 0.5681 0.7537 255 40 40
27.7980 0.5085 0.7537 255 40 40
27.7990 0.4489 0.7537 255 40 40
27.8000 0.3893 0.7537 255 40 40
27.8010 0.3297 0.7537 255 40 40
27.8020 0.2701 0.7537 255 40 40
27.8030 0.2105 0.7537 255 40 40
27.8040 0.1509 0.7537 255 40 40
27.8049 0.0913 0.7537 255 40 40
27.8059 0.0317 0.7537 255 40 40
27.8069 -0.0279 0.7537 255 40 40
27.8079 -0.0875 0.7537 255 40 40
27.8089 -0.1471 0.7537 255 40 40
27.8099 -0.2067 0.7537 255 40 40
27.8109 -0.2663 0.7537 255 40 40
27.8119 -0.3259 0.7537 255 40 40
27.8128 -0.3855 0.7537 255 40 40
27.8138 -0.4451 0.7537 255 40 40
27.8148 -0.5047 0.7537 255 40 40
27.8158 -0.5643 0.7537 255 40 40
27.8168 -0.6239 0.7537 255 40 40
27.8178 -0.6835 0.7537 255 40 40
27.8188 -0.7431 0.7537 255 40 40
27.8197 -0.8027 0.7537 255 40 40
27.8207 -0.8623 0.7537 255 40 40
27.8217 -0.9219 0.7537 255 40 40
27.8227 -0.9815 0.7537 255 40 40
27.8237 -1.0411 0.7537 255 40 40
27.8247 -1.1007 0.7537 255 40 40
27.8257 -1.1603 0.7537 255 40 40
27.8266 -1.2199 0.7537 255 40 40
27.8276 -1.2795 0.7537 255 40 40
27.8286 -1.3391 0.7537 255 40 40
27.8296 -1.3987 0.7537 255 40 40
27.8306 -1.4583 0.7537 255 40 40
27.8316 -1.5180 0.7537 255 40 40
27.8326 -1.5776 0.7537 255 40 40
27.8335 -1.6372 0.7537 255 40 40
27.8345 -1.6968 0.7537 255 40 40
27.8355 -1.7564 0.7537 255 40 40
27.8365 -1.8160 0.7537 255 40 40
27.8375 -1.8756 0.7537 255 40 40
27.8385 -1.9352 0.7537 255 40 40
27.8395 -1.9948 0.7537 255 40 40
27.8405 -2.0544 0.7537 255 40 40
27.8414 -2.1140 0.7537 255 40 40
27.8424 -2.1736 0.7537 255 40 40
27.8434 -2.2332 0.7537 255 40 40
27.8444 -2.2928 0.7537 255 40 40
27.8454 -2.3524 0.7537 255 40 40
27.8464 -2.4120 0.7537 255 40 40
27.8474 -2.4716 0.7537 255 40 40
27.8483 -2.5312 0.7537 255 40 40
27.8493 -2.5908 0.7537 255 40 40
27.8503 -2.6504 0.7537 255 40 40
27.8513 -2.7100 0.7537 255 40 40
27.8523 -2.7696 0.7537 255 40 40
27.8533 -2.8292 0.7537 255 40 40
27.8543 -2.8888 0.7537 255 40 40
27.8552 -2.9484 0.7537 255 40 40
27.8562 -3.0080 0.7537 255 40 40
27.8572 -3.0676 0.7537 255 40 40
27.8582 -3.1272 0.7537 255 40 40
27.8592 -3.1868 0.7537 255 40 40
27.8602 -3.2464 0.7537 255 40 40
27.8612 -3.3060 0.7537 255 40 40
27.8621 -3.3656 0.7537 255 40 40
27.8631 -3.4252 0.7537 255 40 40
27.8641 -3.4848 0.7537 255 40 40
27.8651 -3.5445 0.7537 255 40 40
27.8661 -3.6041 0.7537 255 40 40
27.8671 -3.6637 0.7537 255 40 40
27.8681 -3.7233 0.7537 255 40 40
27.8691 -3.7829 0.7537 255 40 40
27.8700 -3.8425 0.7537 255 40 40
27.8710 -3.9021 0.7537 255 40 40
27.8720 -3.9617 0.7537 255 40 40
27.8730 -4.0213 0.7537 255 40 40
27.8740 -4.0809 0.7537 255 40 40
27.8750 -4.1405 0.7537 255 40 40
27.8760 -4.2001 0.7537 255 40 40
27.8769 -4.2597 0.7537 255 40 40
27.8779 -4.3193 0.7537 255 40 40
27.8789 -4.3789 0.7537 255 40 40
27.8799 -4.4385 0.7537 255 40 40
27.8809 -4.4981 0.7537 255 40 40
27.8819 -4.5577 0.7537 255 40 40
27.8829 -4.6173 0.7537 255 40 40
27.8838 -4.6769 0.7537 255 40 40
27.8848 -4.7365 0.7537 255 40 40
27.8858 -4.7961 0.7537 255 40 40
27.8868 -4.8557 0.7537 255 40 40
27.8878 -4.9153 0.7537 255 40 40
