ply
format ascii 1.0
element vertex 1318
property float x
property float y
property float z
property uchar red
property uchar green
property uchar blue
end_header
-8.5311 -11.5384 -2.0089 160 160 160
-8.5619 -11.5715 -1.6741 160 160 160
-13.6674 -18.4225 -2.1325 160 160 160
-13.6620 -18.4084 -1.5966 160 160 160
-13.6737 -18.4107 -1.0642 160 160 160
-13.7032 -18.4368 -0.5292 160 160 160
-13.7173 -18.4489 0.0031 160 160 160
-13.7020 -18.4150 0.5349 160 160 160
-13.7211 -18.4271 1.0723 160 160 160
-7.9707 -10.7255 0.9319 160 160 160
-7.5527 -10.1586 1.1772 160 160 160
-8.2387 -11.0678 1.6089 160 160 160
-9.9963 -13.4115 2.3458 160 160 160
-10.1148 -13.5598 2.7732 160 160 160
-9.1559 -12.2710 2.8770 160 160 160
-0.3585 -0.5364 -0.3562 160 160 160
-0.3615 -0.5400 -0.3402 160 160 160
-0.4055 -0.5982 -0.3609 160 160 160
-0.4429 -0.6474 -0.3719 160 160 160
-0.5004 -0.7233 -0.3958 160 160 160
-2.6451 -3.5685 -1.9577 160 160 160
-2.8285 -3.8091 -1.9630 160 160 160
-3.0554 -4.1069 -1.9814 160 160 160
-3.3027 -4.4329 -1.9957 160 160 160
-3.5963 -4.8182 -2.0164 160 160 160
-3.9422 -5.2720 -2.0401 160 160 160
-4.3533 -5.8137 -2.0696 160 160 160
-4.8737 -6.4967 -2.1141 160 160 160
-5.5531 -7.3914 -2.1794 160 160 160
-6.4864 -8.6174 -2.2823 160 160 160
-7.7514 -10.2789 -2.4159 160 160 160
-8.5896 -11.4831 -2.3471 160 160 160
-8.6161 -11.5140 -2.0134 160 160 160
-8.6448 -11.5439 -1.6774 160 160 160
-13.6471 -18.1762 -2.1131 160 160 160
-13.6617 -18.1888 -1.5844 160 160 160
-13.6902 -18.2132 -1.0573 160 160 160
-13.7233 -18.2439 -0.5259 160 160 160
-13.7278 -18.2431 0.0030 160 160 160
-13.7352 -18.2397 0.5320 160 160 160
-13.7412 -18.2342 1.0656 160 160 160
0.0001 -0.0592 -0.0024 160 160 160
-8.2212 -10.9212 1.2718 160 160 160
-8.2827 -10.9945 1.6051 160 160 160
-8.4668 -11.2334 1.9714 160 160 160
-9.8729 -13.0795 2.6862 160 160 160
-9.4043 -12.4526 2.9326 160 160 160
-0.3603 -0.5326 -0.3552 160 160 160
-0.3664 -0.5403 -0.3421 160 160 160
-0.4075 -0.5941 -0.3599 160 160 160
-0.4440 -0.6417 -0.3701 160 160 160
-0.4965 -0.7100 -0.3898 160 160 160
-2.6630 -3.5499 -1.9561 160 160 160
-2.8501 -3.7924 -1.9630 160 160 160
-3.0742 -4.0829 -1.9784 160 160 160
-3.3290 -4.4149 -1.9964 160 160 160
-3.6248 -4.7986 -2.0170 160 160 160
-3.9744 -5.2518 -2.0413 160 160 160
-4.3840 -5.7850 -2.0685 160 160 160
-4.9189 -6.4789 -2.1176 160 160 160
-5.6059 -7.3728 -2.1836 160 160 160
-6.5534 -8.6027 -2.2885 160 160 160
-7.8232 -10.2509 -2.4200 160 160 160
0.0001 -0.0588 -0.0023 160 160 160
-9.4017 -12.4094 -2.1801 160 160 160
-9.4440 -12.4558 -1.8184 160 160 160
-13.6631 -17.9812 -2.0996 160 160 160
-13.6559 -17.9650 -1.5718 160 160 160
-13.8103 -18.1544 -1.0586 160 160 160
-13.8412 -18.1817 -0.5265 160 160 160
-13.8517 -18.1888 0.0030 160 160 160
-13.8615 -18.1884 0.5328 160 160 160
-13.7679 -18.0528 1.0595 160 160 160
-8.0336 -10.5546 0.9250 160 160 160
-7.5874 -9.9642 1.1647 160 160 160
-8.3963 -11.0125 1.6149 160 160 160
-10.1628 -13.3121 2.3488 160 160 160
-9.8924 -12.9500 2.6712 160 160 160
-9.6048 -12.5661 2.9727 160 160 160
-0.3651 -0.5328 -0.3572 160 160 160
-0.3691 -0.5378 -0.3421 160 160 160
-0.4106 -0.5913 -0.3599 160 160 160
-0.4507 -0.6430 -0.3728 160 160 160
-0.5135 -0.7240 -0.4000 160 160 160
-2.6837 -3.5337 -1.9561 160 160 160
-2.8727 -3.7770 -1.9638 160 160 160
-3.0995 -4.0678 -1.9799 160 160 160
-3.3559 -4.3962 -1.9971 160 160 160
-3.6509 -4.7758 -2.0164 160 160 160
-3.9973 -5.2194 -2.0377 160 160 160
-4.4216 -5.7630 -2.0701 160 160 160
-4.9582 -6.4532 -2.1187 160 160 160
-5.6516 -7.3421 -2.1845 160 160 160
-6.6040 -8.5634 -2.2885 160 160 160
-7.8981 -10.2225 -2.4245 160 160 160
0.0001 -0.0584 -0.0023 160 160 160
-9.5280 -12.4220 -2.1924 160 160 160
-11.0568 -14.4005 -2.1126 160 160 160
-11.1131 -14.4631 -1.6954 160 160 160
-13.6594 -17.7507 -1.5601 160 160 160
-13.9631 -18.1374 -1.0623 160 160 160
-13.9881 -18.1567 -0.5281 160 160 160
-14.0079 -18.1692 0.0030 160 160 160
-14.0123 -18.1680 0.5346 160 160 160
-13.7710 -17.8434 1.0518 160 160 160
-7.9955 -10.3770 0.9135 160 160 160
-7.6656 -9.9439 1.1677 160 160 160
-8.4678 -10.9745 1.6165 160 160 160
-10.6408 -13.7658 2.4405 160 160 160
-9.9445 -12.8596 2.6647 160 160 160
-9.3787 -12.1269 2.8811 160 160 160
-0.3710 -0.5344 -0.3603 160 160 160
-0.3719 -0.5352 -0.3421 160 160 160
-0.4170 -0.5927 -0.3627 160 160 160
-0.4563 -0.6428 -0.3746 160 160 160
-2.5575 -3.3320 -1.9677 160 160 160
-2.7059 -3.5207 -1.9577 160 160 160
-2.8947 -3.7595 -1.9638 160 160 160
-3.1256 -4.0518 -1.9813 160 160 160
-3.3797 -4.3750 -1.9964 160 160 160
-3.6789 -4.7536 -2.0164 160 160 160
-4.0325 -5.2013 -2.0401 160 160 160
-4.4519 -5.7341 -2.0690 160 160 160
-4.9997 -6.4278 -2.1202 160 160 160
-5.7007 -7.3183 -2.1873 160 160 160
-6.6674 -8.5433 -2.2935 160 160 160
-7.9698 -10.1935 -2.4286 160 160 160
0.0001 -0.0581 -0.0023 160 160 160
0.0001 -0.0581 -0.0023 160 160 160
-13.6363 -17.5306 -2.5852 160 160 160
-11.0758 -14.2396 -1.6769 160 160 160
-13.6518 -17.5314 -1.5478 160 160 160
-14.1440 -18.1483 -1.0679 160 160 160
-14.1680 -18.1658 -0.5309 160 160 160
-14.1626 -18.1524 0.0029 160 160 160
-14.1417 -18.1125 0.5354 160 160 160
-13.7826 -17.6415 1.0447 160 160 160
-11.2027 -14.3448 1.2714 160 160 160
-7.7383 -9.9195 1.1701 160 160 160
-8.6220 -11.0377 1.6335 160 160 160
-10.7184 -13.7024 2.4402 160 160 160
-10.0962 -12.9010 2.6855 160 160 160
0.0001 -0.0581 -0.0023 160 160 160
-0.3717 -0.5291 -0.3582 160 160 160
-0.3758 -0.5340 -0.3431 160 160 160
-0.4190 -0.5886 -0.3618 160 160 160
-0.4653 -0.6468 -0.3790 160 160 160
-2.5601 -3.2974 -1.9557 160 160 160
-2.7281 -3.5075 -1.9593 160 160 160
-2.9137 -3.7395 -1.9623 160 160 160
-3.1444 -4.0295 -1.9792 160 160 160
-3.4033 -4.3536 -1.9957 160 160 160
-3.7073 -4.7356 -2.0177 160 160 160
-4.0635 -5.1813 -2.0413 160 160 160
-4.4881 -5.7125 -2.0707 160 160 160
-5.0351 -6.3994 -2.1202 160 160 160
-5.7508 -7.2956 -2.1905 160 160 160
-6.7220 -8.5147 -2.2960 160 160 160
-8.0447 -10.1716 -2.4341 160 160 160
-8.4575 -10.7786 -2.2426 160 160 160
0.0001 -0.0576 -0.0023 160 160 160
0.0001 -0.0576 -0.0023 160 160 160
-13.6392 -17.3155 -2.0495 160 160 160
-13.6483 -17.3207 -1.5361 160 160 160
0.0001 -0.0576 -0.0023 160 160 160
0.0001 -0.0576 -0.0023 160 160 160
-14.3312 -18.1516 0.0029 160 160 160
-14.3361 -18.1448 0.5388 160 160 160
-13.7801 -17.4371 1.0371 160 160 160
0.0001 -0.0576 -0.0023 160 160 160
-7.7499 -9.8213 1.1635 160 160 160
-8.4793 -10.7325 1.5951 160 160 160
0.0001 -0.0576 -0.0023 160 160 160
-10.2193 -12.9089 2.6991 160 160 160
-9.5037 -12.0004 2.8769 160 160 160
-0.3754 -0.5281 -0.3592 160 160 160
-0.3795 -0.5330 -0.3440 160 160 160
-0.4208 -0.5845 -0.3608 160 160 160
-0.4664 -0.6410 -0.3772 160 160 160
-2.5855 -3.2907 -1.9608 160 160 160
-2.7457 -3.4885 -1.9577 160 160 160
-2.9354 -3.7243 -1.9630 160 160 160
-3.1696 -4.0139 -1.9806 160 160 160
-3.4339 -4.3409 -1.9991 160 160 160
-3.7354 -4.7152 -2.0183 160 160 160
-4.0858 -5.1485 -2.0377 160 160 160
-4.5218 -5.6877 -2.0712 160 160 160
-5.0813 -6.3820 -2.1242 160 160 160
-5.7949 -7.2650 -2.1914 160 160 160
-6.7794 -8.4834 -2.2985 160 160 160
-8.1181 -10.1401 -2.4382 160 160 160
-8.5259 -10.7416 -2.2449 160 160 160
-8.5636 -10.7811 -1.9279 160 160 160
-10.9222 -13.7298 -2.0416 160 160 160
-13.6396 -17.1190 -2.0352 160 160 160
-13.6440 -17.1122 -1.5246 160 160 160
-13.6442 -17.1062 -1.0157 160 160 160
-13.6801 -17.1386 -0.5055 160 160 160
-13.6897 -17.1383 0.0026 160 160 160
0.0001 -0.0573 -0.0023 160 160 160
-13.6887 -17.1186 1.0227 160 160 160
-8.3588 -10.4680 0.9343 160 160 160
-7.8426 -9.8182 1.1687 160 160 160
-8.4150 -10.5267 1.5716 160 160 160
0.0001 -0.0573 -0.0023 160 160 160
-9.8573 -12.3035 2.5841 160 160 160
-9.7412 -12.1549 2.9277 160 160 160
-0.3749 -0.5214 -0.3561 160 160 160
-0.3802 -0.5276 -0.3421 160 160 160
-0.4218 -0.5789 -0.3589 160 160 160
-0.4731 -0.6421 -0.3799 160 160 160
-2.5932 -3.2609 -1.9523 160 160 160
-2.7677 -3.4751 -1.9593 160 160 160
-2.9617 -3.7121 -1.9661 160 160 160
-3.1930 -3.9947 -1.9806 160 160 160
-3.4550 -4.3163 -1.9971 160 160 160
-3.7582 -4.6867 -2.0158 160 160 160
-4.1172 -5.1253 -2.0383 160 160 160
-4.5517 -5.6583 -2.0701 160 160 160
-5.1175 -6.3498 -2.1237 160 160 160
-5.8412 -7.2372 -2.1933 160 160 160
-6.8377 -8.4560 -2.3019 160 160 160
-8.1512 -10.0622 -2.4308 160 160 160
0.0002 -0.0569 -0.0023 160 160 160
-8.6538 -10.7666 -1.9343 160 160 160
0.0002 -0.0569 -0.0023 160 160 160
-13.6379 -16.9104 -2.0201 160 160 160
-13.6491 -16.9181 -1.5144 160 160 160
-13.6470 -16.9035 -1.0085 160 160 160
-13.6804 -16.9325 -0.5018 160 160 160
-13.6908 -16.9392 0.0026 160 160 160
-13.6841 -16.9189 0.5067 160 160 160
-13.6864 -16.9096 1.0150 160 160 160
-8.4550 -10.4643 0.9384 160 160 160
-8.0206 -9.9224 1.1868 160 160 160
-8.6650 -10.7073 1.6065 160 160 160
0.0002 -0.0569 -0.0023 160 160 160
-10.3353 -12.7465 2.6903 160 160 160
0.0002 -0.0569 -0.0023 160 160 160
-0.3787 -0.5202 -0.3571 160 160 160
-0.3829 -0.5250 -0.3421 160 160 160
-0.4281 -0.5802 -0.3617 160 160 160
-0.4788 -0.6417 -0.3817 160 160 160
-2.6128 -3.2469 -1.9531 160 160 160
-2.7844 -3.4540 -1.9569 160 160 160
-2.9827 -3.6946 -1.9661 160 160 160
-3.2120 -3.9715 -1.9784 160 160 160
-3.4849 -4.3011 -1.9998 160 160 160
-3.7932 -4.6749 -2.0202 160 160 160
-4.1438 -5.0982 -2.0371 160 160 160
-4.5897 -5.6367 -2.0724 160 160 160
-5.1561 -6.3229 -2.1247 160 160 160
-5.8936 -7.2141 -2.1970 160 160 160
-6.8986 -8.4286 -2.3056 160 160 160
-8.1641 -9.9573 -2.4171 160 160 160
0.0001 -0.0565 -0.0022 160 160 160
0.0001 -0.0565 -0.0022 160 160 160
-8.8384 -10.8590 -1.6289 160 160 160
-13.6326 -16.7064 -2.0051 160 160 160
-13.6402 -16.7037 -1.5024 160 160 160
-13.6438 -16.7021 -1.0012 160 160 160
-13.6772 -16.7309 -0.4982 160 160 160
-13.6892 -16.7337 0.0025 160 160 160
-13.6821 -16.7190 0.5031 160 160 160
0.0001 -0.0565 -0.0022 160 160 160
-13.6995 -16.7162 1.5108 160 160 160
-8.1853 -10.0034 1.2024 160 160 160
-9.0305 -11.0264 1.6625 160 160 160
-8.4583 -10.3240 1.8703 160 160 160
0.0001 -0.0565 -0.0022 160 160 160
-9.7420 -11.8695 2.8862 160 160 160
-0.3803 -0.5163 -0.3561 160 160 160
-0.3845 -0.5211 -0.3411 160 160 160
-0.4301 -0.5759 -0.3608 160 160 160
-0.4868 -0.6440 -0.3852 160 160 160
-2.6253 -3.2245 -1.9488 160 160 160
-2.8028 -3.4361 -1.9561 160 160 160
-3.0007 -3.6723 -1.9638 160 160 160
-3.2393 -3.9583 -1.9813 160 160 160
-3.4998 -4.2690 -1.9943 160 160 160
-3.8101 -4.6410 -2.0151 160 160 160
-4.1777 -5.0797 -2.0395 160 160 160
-4.6218 -5.6098 -2.0724 160 160 160
-5.1970 -6.2987 -2.1268 160 160 160
-5.9422 -7.1886 -2.1997 160 160 160
-6.9565 -8.4030 -2.3094 160 160 160
-8.1715 -9.8538 -2.4031 160 160 160
-10.4981 -12.7465 -2.7044 160 160 160
0.0001 -0.0562 -0.0022 160 160 160
0.0001 -0.0562 -0.0022 160 160 160
-13.6384 -16.5129 -1.9916 160 160 160
-13.6416 -16.5108 -1.4922 160 160 160
-13.6467 -16.5052 -0.9943 160 160 160
-13.6785 -16.5377 -0.4948 160 160 160
-13.6905 -16.5403 0.0024 160 160 160
-13.6849 -16.5217 0.4995 160 160 160
-13.6918 -16.5242 1.0012 160 160 160
-8.5698 -10.3563 0.9377 160 160 160
-8.2000 -9.9082 1.1964 160 160 160
0.0001 -0.0562 -0.0022 160 160 160
0.0001 -0.0562 -0.0022 160 160 160
0.0001 -0.0562 -0.0022 160 160 160
-10.0478 -12.0981 2.9562 160 160 160
-0.3862 -0.5177 -0.3592 160 160 160
-0.3905 -0.5226 -0.3440 160 160 160
-0.4329 -0.5731 -0.3607 160 160 160
-0.4855 -0.6354 -0.3816 160 160 160
-2.6459 -3.2117 -1.9505 160 160 160
-2.8263 -3.4256 -1.9593 160 160 160
-3.0208 -3.6551 -1.9638 160 160 160
-3.2617 -3.9392 -1.9813 160 160 160
-3.5293 -4.2562 -1.9977 160 160 160
-3.8413 -4.6244 -2.0177 160 160 160
-4.2029 -5.0508 -2.0377 160 160 160
-4.6491 -5.5790 -2.0707 160 160 160
-5.2354 -6.2712 -2.1278 160 160 160
-5.9844 -7.1580 -2.2007 160 160 160
-7.0095 -8.3684 -2.3110 160 160 160
-8.1822 -9.7521 -2.3898 160 160 160
-8.4449 -10.1488 -2.1614 160 160 160
-8.4714 -10.1770 -1.8543 160 160 160
-11.2571 -13.4954 -2.0454 160 160 160
-13.6303 -16.3171 -1.9772 160 160 160
-13.6371 -16.3194 -1.4818 160 160 160
-13.6394 -16.3106 -0.9872 160 160 160
-10.4431 -12.4924 -0.3758 160 160 160
-13.6795 -16.3407 0.0024 160 160 160
-13.6763 -16.3253 0.4958 160 160 160
-13.6836 -16.3224 0.9937 160 160 160
-8.6439 -10.3277 0.9395 160 160 160
-8.3976 -10.0280 1.2169 160 160 160
0.0002 -0.0558 -0.0022 160 160 160
-8.5959 -10.2525 1.8750 160 160 160
0.0002 -0.0558 -0.0022 160 160 160
-9.8457 -11.7183 2.8769 160 160 160
-0.3878 -0.5138 -0.3581 160 160 160
-0.3932 -0.5199 -0.3440 160 160 160
-0.4382 -0.5729 -0.3626 160 160 160
-0.4946 -0.6390 -0.3861 160 160 160
-2.6628 -3.1947 -1.9497 160 160 160
-2.8438 -3.4057 -1.9577 160 160 160
-3.0392 -3.6344 -1.9622 160 160 160
-3.2804 -3.9157 -1.9791 160 160 160
-3.5505 -4.2305 -1.9957 160 160 160
-3.8651 -4.5988 -2.0164 160 160 160
-4.2316 -5.0261 -2.0377 160 160 160
-4.6818 -5.5511 -2.0707 160 160 160
-5.2786 -6.2494 -2.1308 160 160 160
-6.0391 -7.1367 -2.2053 160 160 160
-7.0651 -8.3337 -2.3131 160 160 160
-8.1987 -9.6552 -2.3780 160 160 160
0.0001 -0.0554 -0.0022 160 160 160
0.0001 -0.0554 -0.0022 160 160 160
0.0001 -0.0554 -0.0022 160 160 160
-13.6297 -16.1270 -1.9637 160 160 160
-13.6392 -16.1268 -1.4717 160 160 160
-13.6449 -16.1278 -0.9809 160 160 160
-10.6557 -12.5977 -0.3808 160 160 160
-13.6838 -16.1507 0.0023 160 160 160
-13.6687 -16.1271 0.4921 160 160 160
-13.6890 -16.1396 0.9873 160 160 160
-9.3127 -10.9898 1.0052 160 160 160
-8.6259 -10.1761 1.2413 160 160 160
-8.2688 -9.7536 1.4910 160 160 160
-8.6164 -10.1542 1.8664 160 160 160
0.0001 -0.0554 -0.0022 160 160 160
-11.2185 -13.1898 3.2561 160 160 160
-0.3927 -0.5137 -0.3601 160 160 160
-0.4016 -0.5238 -0.3489 160 160 160
-0.4401 -0.5686 -0.3617 160 160 160
-0.4922 -0.6289 -0.3816 160 160 160
-2.6838 -3.1813 -1.9514 160 160 160
-2.8631 -3.3889 -1.9577 160 160 160
-3.0603 -3.6160 -1.9622 160 160 160
-3.2983 -3.8902 -1.9762 160 160 160
-3.5768 -4.2126 -1.9971 160 160 160
-3.8908 -4.5740 -2.0157 160 160 160
-4.2597 -4.9991 -2.0371 160 160 160
-4.7159 -5.5265 -2.0718 160 160 160
-5.3178 -6.2205 -2.1318 160 160 160
-6.0811 -7.1029 -2.2058 160 160 160
-7.1330 -8.3163 -2.3198 160 160 160
-8.2371 -9.5881 -2.3732 160 160 160
-8.5251 -10.0052 -2.1521 160 160 160
-8.5570 -10.0389 -1.8473 160 160 160
0.0001 -0.0550 -0.0022 160 160 160
-13.6340 -15.9397 -1.9507 160 160 160
-13.6301 -15.9295 -1.4608 160 160 160
-13.6489 -15.9400 -0.9744 160 160 160
-10.7051 -12.5051 -0.3799 160 160 160
-13.6851 -15.9651 0.0022 160 160 160
-13.6660 -15.9316 0.4886 160 160 160
-13.6995 -15.9592 0.9811 160 160 160
-9.3339 -10.8872 1.0007 160 160 160
-8.5163 -9.9314 1.2173 160 160 160
-8.2847 -9.6559 1.4835 160 160 160
-8.8090 -10.2600 1.8954 160 160 160
-8.6021 -10.0132 2.1626 160 160 160
-10.2873 -11.9555 2.9650 160 160 160
-0.3942 -0.5098 -0.3591 160 160 160
-0.4009 -0.5171 -0.3459 160 160 160
-0.4465 -0.5697 -0.3645 160 160 160
-0.4909 -0.6203 -0.3780 160 160 160
-2.6993 -3.1626 -1.9497 160 160 160
-2.8859 -3.3761 -1.9601 160 160 160
-3.0796 -3.5965 -1.9615 160 160 160
-3.3240 -3.8750 -1.9784 160 160 160
-3.6020 -4.1929 -1.9977 160 160 160
-3.9155 -4.5498 -2.0151 160 160 160
-4.2882 -4.9741 -2.0371 160 160 160
-4.7498 -5.5018 -2.0729 160 160 160
-5.3532 -6.1894 -2.1318 160 160 160
-6.1292 -7.0762 -2.2085 160 160 160
-7.1947 -8.2909 -2.3243 160 160 160
-8.2880 -9.5357 -2.3721 160 160 160
-8.6133 -9.9913 -2.1598 160 160 160
0.0001 -0.0547 -0.0022 160 160 160
-8.6424 -10.0144 -1.5391 160 160 160
-13.6247 -15.7448 -1.9365 160 160 160
-13.6363 -15.7524 -1.4518 160 160 160
-13.6458 -15.7523 -0.9678 160 160 160
-13.6795 -15.7798 -0.4817 160 160 160
-13.6806 -15.7755 0.0022 160 160 160
-13.6784 -15.7619 0.4858 160 160 160
-13.6937 -15.7682 0.9742 160 160 160
-9.9349 -11.4510 1.0582 160 160 160
-8.6437 -9.9628 1.2273 160 160 160
-8.3790 -9.6526 1.4905 160 160 160
-8.8625 -10.2027 1.8942 160 160 160
-8.5710 -9.8621 2.1405 160 160 160
-10.2936 -11.8246 2.9472 160 160 160
-0.3935 -0.5032 -0.3560 160 160 160
-0.4036 -0.5144 -0.3459 160 160 160
-0.4426 -0.5587 -0.3588 160 160 160
-0.5001 -0.6238 -0.3825 160 160 160
-2.7137 -3.1425 -1.9471 160 160 160
-2.9043 -3.3572 -1.9593 160 160 160
-3.1066 -3.5848 -1.9653 160 160 160
-3.3485 -3.8582 -1.9799 160 160 160
-3.6277 -4.1725 -1.9984 160 160 160
-3.9438 -4.5296 -2.0164 160 160 160
-4.3177 -4.9504 -2.0377 160 160 160
-4.7795 -5.4702 -2.0718 160 160 160
-5.3962 -6.1668 -2.1349 160 160 160
-6.1772 -7.0466 -2.2108 160 160 160
-7.2524 -8.2606 -2.3277 160 160 160
-8.3594 -9.5065 -2.3769 160 160 160
0.0001 -0.0544 -0.0022 160 160 160
0.0001 -0.0544 -0.0022 160 160 160
-8.8377 -10.1178 -1.5632 160 160 160
-13.7412 -15.6903 -1.9398 160 160 160
-13.7634 -15.7098 -1.4555 160 160 160
-10.8315 -12.3662 -0.7635 160 160 160
-13.8121 -15.7484 -0.4832 160 160 160
-11.1009 -12.6588 0.0013 160 160 160
-13.8243 -15.7400 0.4876 160 160 160
-13.8395 -15.7517 0.9781 160 160 160
-10.1383 -11.5456 1.0726 160 160 160
-8.7467 -9.9648 1.2338 160 160 160
-8.4223 -9.5904 1.4884 160 160 160
-11.4814 -13.0447 2.4381 160 160 160
-9.2574 -10.5248 2.2970 160 160 160
-11.3198 -12.8481 3.2201 160 160 160
-0.3937 -0.4981 -0.3540 160 160 160
-0.4039 -0.5091 -0.3439 160 160 160
-0.4466 -0.5572 -0.3597 160 160 160
-0.4938 -0.6099 -0.3753 160 160 160
-2.7290 -3.1238 -1.9454 160 160 160
-2.9215 -3.3391 -1.9585 160 160 160
-3.1226 -3.5628 -1.9630 160 160 160
-3.3703 -3.8385 -1.9798 160 160 160
-3.6494 -4.1504 -1.9977 160 160 160
-3.9669 -4.5036 -2.0151 160 160 160
-4.3458 -4.9251 -2.0377 160 160 160
-4.8199 -5.4545 -2.0762 160 160 160
-5.4364 -6.1410 -2.1369 160 160 160
-6.2265 -7.0233 -2.2145 160 160 160
-7.3113 -8.2315 -2.3314 160 160 160
-8.3835 -9.4242 -2.3684 160 160 160
0.0001 -0.0540 -0.0021 160 160 160
0.0001 -0.0540 -0.0021 160 160 160
0.0001 -0.0540 -0.0021 160 160 160
-13.7714 -15.5489 -1.9319 160 160 160
0.0001 -0.0540 -0.0021 160 160 160
-13.7831 -15.5455 -0.9649 160 160 160
-10.9265 -12.3262 -0.3803 160 160 160
-13.8115 -15.5609 0.0021 160 160 160
-13.8093 -15.5473 0.4840 160 160 160
-13.8393 -15.5699 0.9717 160 160 160
-10.2329 -11.5226 1.0758 160 160 160
-8.7307 -9.8322 1.2236 160 160 160
-8.5062 -9.5740 1.4935 160 160 160
0.0001 -0.0540 -0.0021 160 160 160
-9.3321 -10.4870 2.3006 160 160 160
-10.4979 -11.7822 2.9668 160 160 160
-0.4020 -0.5018 -0.3591 160 160 160
-0.4088 -0.5091 -0.3459 160 160 160
-0.4495 -0.5542 -0.3597 160 160 160
-0.4946 -0.6040 -0.3735 160 160 160
-2.7466 -3.1076 -1.9454 160 160 160
-2.9409 -3.3214 -1.9585 160 160 160
-3.1465 -3.5485 -1.9653 160 160 160
-3.3933 -3.8200 -1.9806 160 160 160
-3.6762 -4.1310 -1.9991 160 160 160
-3.9964 -4.4845 -2.0170 160 160 160
-4.3700 -4.8954 -2.0359 160 160 160
-4.8532 -5.4269 -2.0768 160 160 160
-5.4753 -6.1136 -2.1384 160 160 160
-6.2717 -6.9902 -2.2159 160 160 160
-7.3689 -8.1977 -2.3343 160 160 160
0.0001 -0.0536 -0.0021 160 160 160
-8.4145 -9.4286 -2.0692 160 160 160
0.0001 -0.0536 -0.0021 160 160 160
-13.7643 -15.3728 -2.4026 160 160 160
-13.7739 -15.3727 -1.9199 160 160 160
-13.7654 -15.3522 -1.4370 160 160 160
-10.9999 -12.2744 -0.7656 160 160 160
-10.9596 -12.2210 -0.3790 160 160 160
-13.8257 -15.3921 0.0021 160 160 160
-13.8594 -15.4241 0.4826 160 160 160
-13.8494 -15.4021 0.9662 160 160 160
0.0001 -0.0536 -0.0021 160 160 160
-8.6552 -9.6320 1.2049 160 160 160
-8.5156 -9.4744 1.4855 160 160 160
-8.4032 -9.3433 1.7610 160 160 160
-9.0786 -10.0830 2.2233 160 160 160
-9.3029 -10.3270 2.6121 160 160 160
-0.4035 -0.4978 -0.3580 160 160 160
-0.4091 -0.5037 -0.3439 160 160 160
-0.4632 -0.5629 -0.3682 160 160 160
-0.4978 -0.6007 -0.3735 160 160 160
-2.7690 -3.0967 -1.9488 160 160 160
-2.9572 -3.3013 -1.9568 160 160 160
-3.1647 -3.5267 -1.9637 160 160 160
-3.4162 -3.8014 -1.9813 160 160 160
-3.6996 -4.1094 -1.9991 160 160 160
-4.0218 -4.4611 -2.0170 160 160 160
-4.4003 -4.8726 -2.0371 160 160 160
-4.8840 -5.3985 -2.0768 160 160 160
-5.5179 -6.0901 -2.1415 160 160 160
-6.3181 -6.9607 -2.2182 160 160 160
-7.4261 -8.1691 -2.3381 160 160 160
-8.4458 -9.2770 -2.3559 160 160 160
0.0001 -0.0533 -0.0021 160 160 160
-8.5070 -9.4155 -1.7774 160 160 160
-13.7814 -15.2097 -2.3899 160 160 160
-13.7574 -15.1724 -1.9051 160 160 160
-13.7633 -15.1735 -1.4277 160 160 160
-13.7939 -15.1964 -0.9532 160 160 160
-13.8118 -15.2107 -0.4741 160 160 160
-13.8235 -15.2128 0.0020 160 160 160
-13.8856 -15.2703 0.4803 160 160 160
0.0001 -0.0533 -0.0021 160 160 160
-10.9759 -12.0687 1.1392 160 160 160
-8.6212 -9.4876 1.1928 160 160 160
0.0001 -0.0533 -0.0021 160 160 160
-9.8323 -10.7979 2.0478 160 160 160
-9.0666 -9.9575 2.2067 160 160 160
-9.4031 -10.3178 2.6235 160 160 160
-0.4083 -0.4977 -0.3601 160 160 160
-0.4128 -0.5023 -0.3449 160 160 160
-0.4589 -0.5521 -0.3625 160 160 160
-2.6283 -2.9105 -1.9505 160 160 160
-2.7877 -3.0817 -1.9496 160 160 160
-2.9783 -3.2865 -1.9584 160 160 160
-3.1821 -3.5053 -1.9622 160 160 160
-3.4340 -3.7771 -1.9791 160 160 160
-3.7254 -4.0905 -2.0005 160 160 160
-4.0440 -4.4326 -2.0151 160 160 160
-4.4288 -4.8460 -2.0371 160 160 160
-4.9186 -5.3742 -2.0784 160 160 160
-5.5563 -6.0597 -2.1425 160 160 160
-6.3656 -6.9299 -2.2205 160 160 160
-7.4822 -8.1304 -2.3402 160 160 160
-8.5204 -9.2479 -2.3614 160 160 160
-8.4819 -9.2868 -2.0595 160 160 160
-8.5098 -9.3107 -1.7668 160 160 160
-11.1160 -12.1417 -1.9164 160 160 160
0.0001 -0.0528 -0.0021 160 160 160
0.0001 -0.0528 -0.0021 160 160 160
0.0001 -0.0528 -0.0021 160 160 160
0.0001 -0.0528 -0.0021 160 160 160
-11.0696 -12.0528 0.0011 160 160 160
0.0001 -0.0528 -0.0021 160 160 160
0.0001 -0.0528 -0.0021 160 160 160
-9.7938 -10.6510 1.0099 160 160 160
-8.7122 -9.4739 1.1976 160 160 160
-9.2431 -10.0411 1.5921 160 160 160
-9.1585 -9.9426 1.8950 160 160 160
-9.1278 -9.9061 2.2073 160 160 160
0.0001 -0.0528 -0.0021 160 160 160
-0.4110 -0.4948 -0.3601 160 160 160
-0.4156 -0.4994 -0.3449 160 160 160
-0.4654 -0.5529 -0.3653 160 160 160
-2.6372 -2.8848 -1.9442 160 160 160
-2.8044 -3.0634 -1.9488 160 160 160
-2.9963 -3.2670 -1.9576 160 160 160
-3.2050 -3.4887 -1.9637 160 160 160
-3.4547 -3.7550 -1.9784 160 160 160
-3.7467 -4.0652 -1.9991 160 160 160
-4.0665 -4.4061 -2.0138 160 160 160
-4.4603 -4.8242 -2.0389 160 160 160
-4.9488 -5.3431 -2.0779 160 160 160
-5.5987 -6.0358 -2.1455 160 160 160
-6.4091 -6.8970 -2.2219 160 160 160
-7.5366 -8.0981 -2.3431 160 160 160
-8.5961 -9.2227 -2.3677 160 160 160
-8.5502 -9.2475 -2.0624 160 160 160
-8.5848 -9.2813 -1.7710 160 160 160
-8.6545 -9.3497 -1.4827 160 160 160
-11.1778 -12.0519 -1.5288 160 160 160
-11.1725 -12.0419 -1.1448 160 160 160
-11.1645 -12.0249 -0.7623 160 160 160
-11.1593 -12.0151 -0.3787 160 160 160
-11.1406 -11.9866 0.0011 160 160 160
-11.2796 -12.1270 0.3848 160 160 160
-9.9548 -10.7050 0.6807 160 160 160
-10.9371 -11.7479 1.1208 160 160 160
-9.1486 -9.8319 1.2499 160 160 160
-9.5557 -10.2600 1.6358 160 160 160
-10.3879 -11.1410 2.1364 160 160 160
-9.1075 -9.7709 2.1888 160 160 160
-10.1825 -10.9103 2.8055 160 160 160
-0.4112 -0.4896 -0.3580 160 160 160
-0.4193 -0.4980 -0.3458 160 160 160
-0.4755 -0.5576 -0.3709 160 160 160
-2.6455 -2.8619 -1.9388 160 160 160
-2.8229 -3.0482 -1.9496 160 160 160
-3.0154 -3.2512 -1.9584 160 160 160
-3.2255 -3.4717 -1.9645 160 160 160
-3.4785 -3.7374 -1.9798 160 160 160
-3.7691 -4.0438 -1.9991 160 160 160
-4.0941 -4.3850 -2.0151 160 160 160
-4.4851 -4.7953 -2.0377 160 160 160
-4.9809 -5.3178 -2.0790 160 160 160
-5.6318 -6.0016 -2.1450 160 160 160
-6.4592 -6.8734 -2.2261 160 160 160
-7.5976 -8.0697 -2.3477 160 160 160
-9.1681 -9.7204 -2.5098 160 160 160
-8.7298 -9.3358 -2.0932 160 160 160
-8.7679 -9.3728 -1.7980 160 160 160
-8.7935 -9.3934 -1.4975 160 160 160
-13.5960 -14.4850 -1.8481 160 160 160
-13.5996 -14.4837 -1.3848 160 160 160
-13.6190 -14.4940 -0.9239 160 160 160
-13.6570 -14.5242 -0.4602 160 160 160
-13.6742 -14.5372 0.0018 160 160 160
-13.6632 -14.5154 0.4637 160 160 160
-9.9830 -10.6123 0.6784 160 160 160
-13.6850 -14.5231 1.3946 160 160 160
-9.3348 -9.9160 1.2676 160 160 160
-13.7079 -14.5270 2.3332 160 160 160
-10.3870 -11.0163 2.1235 160 160 160
0.0001 -0.0521 -0.0021 160 160 160
0.0001 -0.0521 -0.0021 160 160 160
-0.4112 -0.4844 -0.3559 160 160 160
-0.4218 -0.4952 -0.3458 160 160 160
-0.4797 -0.5557 -0.3719 160 160 160
-2.6629 -2.8475 -1.9397 160 160 160
-2.8389 -3.0302 -1.9488 160 160 160
-3.0381 -3.2369 -1.9609 160 160 160
-3.2438 -3.4513 -1.9637 160 160 160
-3.4971 -3.7142 -1.9784 160 160 160
-3.7940 -4.0224 -1.9998 160 160 160
-4.1177 -4.3596 -2.0144 160 160 160
-4.5162 -4.7732 -2.0395 160 160 160
-5.0240 -5.3003 -2.0839 160 160 160
-5.6713 -5.9743 -2.1470 160 160 160
-6.5050 -6.8402 -2.2279 160 160 160
-7.6599 -8.0397 -2.3522 160 160 160
-9.2444 -9.6852 -2.5150 160 160 160
0.0001 -0.0517 -0.0021 160 160 160
0.0001 -0.0517 -0.0021 160 160 160
-8.8443 -9.3394 -1.4971 160 160 160
-13.5923 -14.3152 -1.8364 160 160 160
-13.6024 -14.3157 -1.3765 160 160 160
-13.6150 -14.3239 -0.9181 160 160 160
-13.6504 -14.3509 -0.4572 160 160 160
-13.6674 -14.3585 0.0017 160 160 160
0.0001 -0.0517 -0.0021 160 160 160
-10.0037 -10.5123 0.6757 160 160 160
0.0001 -0.0517 -0.0021 160 160 160
-9.5005 -9.9724 1.2821 160 160 160
0.0001 -0.0517 -0.0021 160 160 160
-10.4807 -10.9841 2.1294 160 160 160
-9.6099 -10.0689 2.2813 160 160 160
-10.3873 -10.8752 2.8274 160 160 160
-0.4162 -0.4841 -0.3580 160 160 160
-0.4220 -0.4898 -0.3438 160 160 160
-0.4827 -0.5525 -0.3719 160 160 160
-2.6794 -2.8313 -1.9397 160 160 160
-2.8586 -3.0160 -1.9505 160 160 160
-3.0539 -3.2163 -1.9592 160 160 160
-3.2652 -3.4330 -1.9645 160 160 160
-3.5208 -3.6963 -1.9798 160 160 160
-3.8194 -4.0028 -2.0011 160 160 160
-4.1425 -4.3355 -2.0144 160 160 160
-4.5315 -4.7343 -2.0341 160 160 160
-5.0462 -5.2626 -2.0806 160 160 160
-5.7107 -5.9467 -2.1491 160 160 160
-6.5562 -6.8149 -2.2321 160 160 160
-7.7139 -8.0062 -2.3552 160 160 160
-8.3850 -8.6923 -2.2682 160 160 160
-9.6426 -10.0684 -2.2837 160 160 160
0.0001 -0.0514 -0.0020 160 160 160
-13.5903 -14.1541 -2.2852 160 160 160
-13.5924 -14.1464 -1.8251 160 160 160
-13.6026 -14.1521 -1.3683 160 160 160
-13.6204 -14.1606 -0.9128 160 160 160
-13.6561 -14.1926 -0.4547 160 160 160
-13.6718 -14.1987 0.0017 160 160 160
-13.6619 -14.1785 0.4580 160 160 160
0.0001 -0.0514 -0.0020 160 160 160
-9.5986 -9.9665 0.9656 160 160 160
-9.4242 -9.7828 1.2644 160 160 160
-10.3182 -10.6985 1.7347 160 160 160
-9.3535 -9.6963 1.8888 160 160 160
-9.8073 -10.1605 2.3147 160 160 160
-10.5877 -10.9573 2.8648 160 160 160
-0.4175 -0.4801 -0.3569 160 160 160
-0.4233 -0.4857 -0.3428 160 160 160
-0.4780 -0.5419 -0.3662 160 160 160
-2.6912 -2.8120 -1.9370 160 160 160
-2.8718 -2.9952 -1.9479 160 160 160
-3.0682 -3.1944 -1.9568 160 160 160
-3.2802 -3.4104 -1.9622 160 160 160
-3.5403 -3.6743 -1.9791 160 160 160
-3.8382 -3.9763 -1.9991 160 160 160
-4.1764 -4.3206 -2.0189 160 160 160
-4.5663 -4.7160 -2.0377 160 160 160
-5.0855 -5.2427 -2.0845 160 160 160
-5.7526 -5.9217 -2.1521 160 160 160
-6.6005 -6.7822 -2.2339 160 160 160
-7.7719 -7.9712 -2.3585 160 160 160
0.0001 -0.0510 -0.0020 160 160 160
-8.4044 -8.6847 -1.9792 160 160 160
-9.7806 -10.0912 -1.9692 160 160 160
-13.5842 -13.9909 -2.2711 160 160 160
-13.6208 -14.0187 -1.8185 160 160 160
-13.6014 -13.9888 -1.3601 160 160 160
-13.6125 -13.9952 -0.9071 160 160 160
-13.6536 -14.0275 -0.4520 160 160 160
-13.6677 -14.0321 0.0017 160 160 160
-13.6622 -14.0216 0.4553 160 160 160
-13.6755 -14.0254 0.9135 160 160 160
-9.7882 -10.0460 0.9789 160 160 160
-9.4790 -9.7235 1.2640 160 160 160
-9.9984 -10.2498 1.6709 160 160 160
-9.4575 -9.6914 1.8986 160 160 160
-13.7257 -14.0323 3.2207 160 160 160
-10.4011 -10.6419 2.7977 160 160 160
-0.4187 -0.4760 -0.3559 160 160 160
-0.4319 -0.4892 -0.3477 160 160 160
-0.4896 -0.5475 -0.3728 160 160 160
-2.7050 -2.7931 -1.9352 160 160 160
-2.8867 -2.9752 -1.9462 160 160 160
-3.0914 -3.1815 -1.9600 160 160 160
-3.2988 -3.3892 -1.9614 160 160 160
-3.5605 -3.6516 -1.9784 160 160 160
-3.8621 -3.9551 -1.9998 160 160 160
-4.1896 -4.2833 -2.0132 160 160 160
-4.5940 -4.6884 -2.0377 160 160 160
-5.1126 -5.2102 -2.0834 160 160 160
-5.7914 -5.8912 -2.1536 160 160 160
-6.6473 -6.7519 -2.2367 160 160 160
-7.8243 -7.9329 -2.3606 160 160 160
-8.4204 -8.5273 -2.2509 160 160 160
-8.4555 -8.6342 -1.9793 160 160 160
-8.5161 -8.6927 -1.7049 160 160 160
-13.5816 -13.8234 -2.2570 160 160 160
-13.6853 -13.9187 -1.8161 160 160 160
-13.5931 -13.8205 -1.3514 160 160 160
-13.6150 -13.8328 -0.9018 160 160 160
-13.6562 -13.8648 -0.4494 160 160 160
-13.6608 -13.8646 0.0016 160 160 160
-13.6492 -13.8433 0.4521 160 160 160
-9.8824 -10.0299 0.6556 160 160 160
-9.7248 -9.8672 0.9668 160 160 160
-10.2566 -10.3967 1.3599 160 160 160
-9.9286 -10.0588 1.6493 160 160 160
-9.4543 -9.5773 1.8868 160 160 160
-11.3085 -11.4377 2.6377 160 160 160
-10.4346 -10.5504 2.7899 160 160 160
-0.4260 -0.4781 -0.3600 160 160 160
-0.4333 -0.4850 -0.3467 160 160 160
-0.4874 -0.5393 -0.3690 160 160 160
-2.7208 -2.7771 -1.9352 160 160 160
-2.9098 -2.9645 -1.9504 160 160 160
-3.1043 -3.1581 -1.9568 160 160 160
-3.3205 -3.3724 -1.9629 160 160 160
-3.5865 -3.6358 -1.9813 160 160 160
-3.8805 -3.9285 -1.9977 160 160 160
-4.2167 -4.2614 -2.0144 160 160 160
-4.6219 -4.6629 -2.0383 160 160 160
-5.1463 -5.1844 -2.0850 160 160 160
-5.8277 -5.8601 -2.1546 160 160 160
-6.6900 -6.7173 -2.2381 160 160 160
-7.8806 -7.8984 -2.3639 160 160 160
-8.4969 -8.5061 -2.2583 160 160 160
0.0001 -0.0502 -0.0020 160 160 160
-8.4889 -8.5660 -1.6896 160 160 160
-13.5807 -13.6644 -2.2438 160 160 160
-13.5821 -13.6561 -1.7920 160 160 160
-13.5961 -13.6654 -1.3439 160 160 160
-13.6164 -13.6761 -0.8968 160 160 160
-13.6506 -13.7008 -0.4466 160 160 160
-13.6581 -13.7034 0.0016 160 160 160
-13.6464 -13.6821 0.4494 160 160 160
-9.9893 -10.0219 0.6588 160 160 160
-9.7403 -9.7698 0.9628 160 160 160
-10.1947 -10.2161 1.3439 160 160 160
-9.6680 -9.6843 1.5967 160 160 160
-10.9949 -11.0025 2.1820 160 160 160
-13.7307 -13.7180 3.1846 160 160 160
-10.4936 -10.4884 2.7895 160 160 160
-0.4272 -0.4742 -0.3589 160 160 160
-0.4356 -0.4822 -0.3467 160 160 160
-0.4840 -0.5298 -0.3643 160 160 160
-2.7334 -2.7591 -1.9334 160 160 160
-2.9209 -2.9428 -1.9470 160 160 160
-3.1233 -3.1411 -1.9576 160 160 160
-3.3436 -3.3567 -1.9652 160 160 160
-3.6011 -3.6101 -1.9783 160 160 160
-3.9054 -3.9083 -1.9991 160 160 160
-4.2381 -4.2340 -2.0132 160 160 160
-4.6430 -4.6304 -2.0359 160 160 160
-5.1758 -5.1543 -2.0850 160 160 160
-5.8611 -5.8261 -2.1546 160 160 160
-6.7391 -6.6866 -2.2413 160 160 160
-7.9355 -7.8592 -2.3664 160 160 160
-8.5721 -8.4828 -2.2653 160 160 160
-8.5285 -8.5133 -1.9738 160 160 160
-8.5602 -8.5390 -1.6941 160 160 160
-13.5804 -13.5125 -2.2313 160 160 160
-13.5886 -13.5110 -1.7830 160 160 160
-13.5906 -13.5036 -1.3357 160 160 160
-13.6151 -13.5184 -0.8916 160 160 160
-13.6484 -13.5466 -0.4441 160 160 160
-13.6640 -13.5524 0.0015 160 160 160
-13.6493 -13.5284 0.4469 160 160 160
-10.1390 -10.0550 0.6649 160 160 160
-9.8301 -9.7468 0.9661 160 160 160
-10.3041 -10.2073 1.3506 160 160 160
-9.6654 -9.5708 1.5871 160 160 160
0.0001 -0.0499 -0.0020 160 160 160
-11.4206 -11.2880 2.6334 160 160 160
-11.2486 -11.1109 2.9733 160 160 160
-0.4298 -0.4712 -0.3589 160 160 160
-0.4395 -0.4804 -0.3477 160 160 160
-0.4906 -0.5303 -0.3671 160 160 160
-2.7487 -2.7406 -1.9325 160 160 160
-2.9380 -2.9250 -1.9470 160 160 160
-3.1430 -3.1234 -1.9584 160 160 160
-3.3618 -3.3351 -1.9645 160 160 160
-3.6222 -3.5883 -1.9783 160 160 160
-3.9283 -3.8847 -1.9991 160 160 160
-4.2648 -4.2118 -2.0144 160 160 160
-4.6720 -4.6059 -2.0371 160 160 160
-5.2115 -5.1284 -2.0872 160 160 160
-5.8985 -5.7958 -2.1562 160 160 160
-6.7800 -6.6501 -2.2422 160 160 160
-7.9916 -7.8267 -2.3702 160 160 160
-9.5111 -9.2990 -2.4991 160 160 160
-8.6096 -8.4898 -1.9806 160 160 160
-8.6359 -8.5126 -1.6991 160 160 160
-9.5477 -9.3995 -1.5599 160 160 160
-13.5879 -13.3466 -1.7722 160 160 160
-13.5946 -13.3484 -1.3284 160 160 160
-13.6134 -13.3574 -0.8863 160 160 160
-13.6468 -13.3854 -0.4415 160 160 160
-13.6638 -13.3924 0.0015 160 160 160
-13.6560 -13.3757 0.4445 160 160 160
-13.6658 -13.3804 0.8918 160 160 160
-9.8590 -9.6600 0.9633 160 160 160
0.0000 -0.0495 -0.0020 160 160 160
-9.7328 -9.5272 1.5892 160 160 160
-10.1996 -9.9747 2.0008 160 160 160
-13.7146 -13.3903 3.1450 160 160 160
0.0000 -0.0495 -0.0020 160 160 160
-0.4371 -0.4732 -0.3630 160 160 160
-0.4431 -0.4788 -0.3486 160 160 160
-0.4997 -0.5333 -0.3718 160 160 160
-2.7662 -2.7273 -1.9342 160 160 160
-2.9584 -2.9115 -1.9496 160 160 160
-3.1601 -3.1054 -1.9584 160 160 160
-3.3748 -3.3108 -1.9614 160 160 160
-3.6439 -3.5683 -1.9791 160 160 160
-3.9469 -3.8597 -1.9977 160 160 160
-4.2874 -4.1855 -2.0138 160 160 160
-4.6995 -4.5799 -2.0377 160 160 160
-5.2398 -5.0989 -2.0872 160 160 160
-5.9398 -5.7695 -2.1592 160 160 160
-6.8238 -6.6185 -2.2445 160 160 160
-8.0404 -7.7843 -2.3714 160 160 160
-9.6208 -9.2981 -2.5140 160 160 160
-9.4969 -9.2558 -2.1727 160 160 160
-9.5749 -9.3280 -1.8734 160 160 160
-9.5841 -9.3304 -1.5574 160 160 160
-13.5375 -13.1497 -1.7561 160 160 160
-13.5439 -13.1512 -1.3163 160 160 160
-13.5855 -13.1822 -0.8798 160 160 160
-13.6342 -13.2200 -0.4387 160 160 160
-13.6099 -13.1919 0.0014 160 160 160
-10.5276 -10.2082 0.3403 160 160 160
-13.5856 -13.1500 0.8815 160 160 160
-9.7903 -9.4869 0.9514 160 160 160
-9.9788 -9.6617 1.2932 160 160 160
-9.7787 -9.4623 1.5878 160 160 160
0.0001 -0.0492 -0.0020 160 160 160
-11.7912 -11.3874 2.6886 160 160 160
-11.1627 -10.7756 2.9177 160 160 160
-0.4345 -0.4655 -0.3589 160 160 160
-0.4457 -0.4758 -0.3486 160 160 160
-0.4884 -0.5166 -0.3614 160 160 160
-2.7854 -2.7147 -1.9369 160 160 160
-2.9696 -2.8890 -1.9461 160 160 160
-3.1755 -3.0837 -1.9568 160 160 160
-3.3975 -3.2947 -1.9637 160 160 160
-3.6653 -3.5482 -1.9798 160 160 160
-3.9681 -3.8346 -1.9970 160 160 160
-4.3166 -4.1656 -2.0163 160 160 160
-4.7283 -4.5550 -2.0389 160 160 160
-5.2752 -5.0726 -2.0894 160 160 160
-5.9740 -5.7361 -2.1597 160 160 160
-6.8754 -6.5896 -2.2487 160 160 160
-8.0975 -7.7469 -2.3747 160 160 160
-8.2335 -7.8705 -2.1396 160 160 160
-9.5926 -9.2415 -2.1824 160 160 160
-9.6798 -9.3186 -1.8831 160 160 160
-13.5722 -13.0415 -2.1925 160 160 160
-13.5738 -13.0340 -1.7511 160 160 160
-13.5825 -13.0330 -1.3126 160 160 160
-13.5944 -13.0399 -0.8755 160 160 160
-13.6173 -13.0525 -0.4358 160 160 160
-13.6414 -13.0664 0.0014 160 160 160
-10.6929 -10.2491 0.3438 160 160 160
-13.6709 -13.0808 0.8822 160 160 160
-9.8347 -9.4171 0.9503 160 160 160
-10.3428 -9.8944 1.3328 160 160 160
-9.8140 -9.3876 1.5847 160 160 160
0.0001 -0.0488 -0.0019 160 160 160
0.0001 -0.0488 -0.0019 160 160 160
-11.2029 -10.6905 2.9121 160 160 160
-0.4395 -0.4649 -0.3609 160 160 160
-0.4469 -0.4716 -0.3476 160 160 160
-0.4899 -0.5121 -0.3605 160 160 160
-2.7947 -2.6916 -1.9324 160 160 160
-2.9899 -2.8752 -1.9487 160 160 160
-3.1942 -3.0663 -1.9576 160 160 160
-3.4154 -3.2729 -1.9629 160 160 160
-3.6923 -3.5331 -1.9834 160 160 160
-3.9981 -3.8189 -2.0011 160 160 160
-4.3347 -4.1350 -2.0138 160 160 160
-4.7542 -4.5273 -2.0388 160 160 160
-5.3027 -5.0405 -2.0889 160 160 160
-6.0109 -5.7053 -2.1612 160 160 160
-6.9228 -6.5588 -2.2519 160 160 160
-8.1190 -7.6810 -2.3685 160 160 160
0.0001 -0.0485 -0.0019 160 160 160
-8.2540 -7.8650 -1.8676 160 160 160
-13.2138 -12.5574 -2.5559 160 160 160
0.0001 -0.0485 -0.0019 160 160 160
-13.5870 -12.8926 -1.7430 160 160 160
-13.5889 -12.8898 -1.3061 160 160 160
-13.6045 -12.8954 -0.8713 160 160 160
-13.6323 -12.9172 -0.4339 160 160 160
-13.6507 -12.9254 0.0013 160 160 160
-10.6500 -10.0878 0.3404 160 160 160
-10.2505 -9.7077 0.6573 160 160 160
-9.8652 -9.3381 0.9480 160 160 160
-10.6326 -10.0571 1.3630 160 160 160
0.0001 -0.0485 -0.0019 160 160 160
-12.5963 -11.8889 2.4308 160 160 160
-11.9124 -11.2420 2.6866 160 160 160
-11.2525 -10.6146 2.9091 160 160 160
-0.4418 -0.4621 -0.3609 160 160 160
-0.4531 -0.4723 -0.3506 160 160 160
-0.4937 -0.5102 -0.3614 160 160 160
-2.8121 -2.6780 -1.9342 160 160 160
-3.0034 -2.8551 -1.9470 160 160 160
-3.2116 -3.0475 -1.9576 160 160 160
-3.4374 -3.2571 -1.9652 160 160 160
-3.7055 -3.5049 -1.9798 160 160 160
-4.0128 -3.7891 -1.9977 160 160 160
-4.3582 -4.1096 -2.0138 160 160 160
-4.7897 -4.5086 -2.0430 160 160 160
-5.3369 -5.0148 -2.0911 160 160 160
-6.0476 -5.6741 -2.1628 160 160 160
-6.9617 -6.5198 -2.2524 160 160 160
-8.1269 -7.5977 -2.3577 160 160 160
-8.3850 -7.8319 -2.1555 160 160 160
-8.4085 -7.9223 -1.8925 160 160 160
-8.4670 -7.9716 -1.6296 160 160 160
-13.6020 -12.7722 -2.1735 160 160 160
-13.6134 -12.7740 -1.7373 160 160 160
-13.6247 -12.7755 -1.3025 160 160 160
-13.6380 -12.7835 -0.8689 160 160 160
-13.6683 -12.8027 -0.4327 160 160 160
-13.6822 -12.8067 0.0013 160 160 160
-13.6983 -12.8171 0.4361 160 160 160
-9.9258 -9.2941 0.6330 160 160 160
0.0001 -0.0480 -0.0019 160 160 160
-10.6480 -9.9528 1.3574 160 160 160
-10.1814 -9.5154 1.6264 160 160 160
-12.5655 -11.7241 2.4118 160 160 160
-13.7053 -12.7741 3.0741 160 160 160
-11.6056 -10.8207 2.9843 160 160 160
-0.4468 -0.4614 -0.3629 160 160 160
-0.4568 -0.4705 -0.3515 160 160 160
-0.5095 -0.5189 -0.3708 160 160 160
-2.8289 -2.6622 -1.9351 160 160 160
-3.0254 -2.8418 -1.9504 160 160 160
-3.2288 -3.0286 -1.9576 160 160 160
-3.4523 -3.2326 -1.9629 160 160 160
-3.7272 -3.4839 -1.9805 160 160 160
-4.0357 -3.7669 -1.9984 160 160 160
-4.3822 -4.0834 -2.0138 160 160 160
-4.8133 -4.4772 -2.0418 160 160 160
-5.3740 -4.9914 -2.0944 160 160 160
-6.0824 -5.6391 -2.1633 160 160 160
-7.0117 -6.4910 -2.2565 160 160 160
-8.1400 -7.5226 -2.3490 160 160 160
-8.4354 -7.7884 -2.1570 160 160 160
-8.4188 -7.8384 -1.8844 160 160 160
0.0001 -0.0477 -0.0019 160 160 160
0.0001 -0.0477 -0.0019 160 160 160
0.0001 -0.0477 -0.0019 160 160 160
0.0001 -0.0477 -0.0019 160 160 160
0.0001 -0.0477 -0.0019 160 160 160
0.0001 -0.0477 -0.0019 160 160 160
0.0001 -0.0477 -0.0019 160 160 160
0.0001 -0.0477 -0.0019 160 160 160
-9.8292 -9.0953 0.6234 160 160 160
-9.5458 -8.8313 0.9074 160 160 160
0.0001 -0.0477 -0.0019 160 160 160
-10.1584 -9.3819 1.6138 160 160 160
-12.9068 -11.9030 2.4642 160 160 160
-12.3114 -11.3482 2.7466 160 160 160
-11.7983 -10.8694 3.0173 160 160 160
-0.4403 -0.4503 -0.3558 160 160 160
-0.4567 -0.4651 -0.3496 160 160 160
-0.5056 -0.5096 -0.3661 160 160 160
-2.8413 -2.6431 -1.9333 160 160 160
-3.0401 -2.8226 -1.9495 160 160 160
-3.2451 -3.0077 -1.9567 160 160 160
-3.4692 -3.2110 -1.9621 160 160 160
-3.7442 -3.4594 -1.9790 160 160 160
-4.0535 -3.7387 -1.9963 160 160 160
-4.4040 -4.0564 -2.0131 160 160 160
-4.8415 -4.4515 -2.0430 160 160 160
-5.4003 -4.9565 -2.0933 160 160 160
-6.1230 -5.6114 -2.1663 160 160 160
-7.0555 -6.4542 -2.2584 160 160 160
-8.1494 -7.4422 -2.3390 160 160 160
-8.5060 -7.7603 -2.1633 160 160 160
-8.4679 -7.7934 -1.8854 160 160 160
-8.4992 -7.8165 -1.6183 160 160 160
-8.6361 -7.9389 -1.3659 160 160 160
-13.7569 -12.6092 -1.7368 160 160 160
-13.9568 -12.7827 -1.3199 160 160 160
-13.9897 -12.8082 -0.8817 160 160 160
-14.0159 -12.8231 -0.4390 160 160 160
-14.0197 -12.8176 0.0013 160 160 160
-14.0285 -12.8209 0.4418 160 160 160
-9.8693 -9.0274 0.6226 160 160 160
-9.6361 -8.8091 0.9110 160 160 160
-9.6976 -8.8587 1.2228 160 160 160
-10.3575 -9.4550 1.6368 160 160 160
-13.0180 -11.8631 2.4719 160 160 160
-12.2233 -11.1340 2.7122 160 160 160
-11.8939 -10.8314 3.0258 160 160 160
-0.4478 -0.4520 -0.3598 160 160 160
-0.4618 -0.4643 -0.3515 160 160 160
-2.7231 -2.5070 -1.9524 160 160 160
-2.8606 -2.6294 -1.9360 160 160 160
-3.0511 -2.7994 -1.9461 160 160 160
-3.2634 -2.9899 -1.9575 160 160 160
-3.4906 -3.1925 -1.9637 160 160 160
-3.7672 -3.4393 -1.9805 160 160 160
-4.0733 -3.7136 -1.9956 160 160 160
-4.4291 -4.0311 -2.0138 160 160 160
-4.8676 -4.4224 -2.0430 160 160 160
-5.4314 -4.9274 -2.0944 160 160 160
-6.1617 -5.5797 -2.1683 160 160 160
-7.0952 -6.4157 -2.2593 160 160 160
-8.1467 -7.3544 -2.3262 160 160 160
-8.5825 -7.7397 -2.1714 160 160 160
-8.5416 -7.7678 -1.8916 160 160 160
-8.5731 -7.7936 -1.6238 160 160 160
-8.6342 -7.8432 -1.3583 160 160 160
-13.7721 -12.4735 -1.7294 160 160 160
0.0001 -0.0469 -0.0019 160 160 160
0.0001 -0.0469 -0.0019 160 160 160
-14.1926 -12.8303 -0.4422 160 160 160
-14.1941 -12.8272 0.0013 160 160 160
-14.1992 -12.8227 0.4448 160 160 160
-10.0145 -9.0511 0.6284 160 160 160
-9.5559 -8.6357 0.8987 160 160 160
-9.8015 -8.8502 1.2295 160 160 160
-11.3327 -10.2183 1.7815 160 160 160
-13.6858 -12.3259 2.5853 160 160 160
-12.4222 -11.1843 2.7420 160 160 160
-11.8494 -10.6632 2.9984 160 160 160
-0.4488 -0.4479 -0.3588 160 160 160
-0.4668 -0.4637 -0.3535 160 160 160
-2.7109 -2.4674 -1.9336 160 160 160
-2.8701 -2.6077 -1.9324 160 160 160
-3.0637 -2.7795 -1.9444 160 160 160
-3.2803 -2.9706 -1.9575 160 160 160
-3.5073 -3.1708 -1.9629 160 160 160
-3.7875 -3.4190 -1.9812 160 160 160
-4.1042 -3.6985 -2.0004 160 160 160
-4.4527 -4.0071 -2.0144 160 160 160
-4.8976 -4.3998 -2.0454 160 160 160
-5.4695 -4.9046 -2.0983 160 160 160
-6.1939 -5.5462 -2.1688 160 160 160
-7.1478 -6.3886 -2.2644 160 160 160
-8.1567 -7.2811 -2.3175 160 160 160
-10.2256 -9.1096 -2.5740 160 160 160
0.0001 -0.0466 -0.0018 160 160 160
0.0001 -0.0466 -0.0018 160 160 160
-8.6285 -7.7480 -1.3504 160 160 160
-13.7750 -12.3327 -1.7209 160 160 160
0.0001 -0.0466 -0.0018 160 160 160
0.0001 -0.0466 -0.0018 160 160 160
-14.4130 -12.8835 -0.4468 160 160 160
-14.4468 -12.9044 0.0013 160 160 160
-14.2352 -12.7071 0.4436 160 160 160
-10.0915 -9.0185 0.6301 160 160 160
-9.6231 -8.5961 0.9004 160 160 160
-9.4619 -8.4499 1.1809 160 160 160
-13.6461 -12.1574 2.1348 160 160 160
-13.6778 -12.1768 2.5705 160 160 160
0.0001 -0.0466 -0.0018 160 160 160
-11.9247 -10.6108 3.0024 160 160 160
-0.4562 -0.4496 -0.3629 160 160 160
-0.4782 -0.4687 -0.3603 160 160 160
-2.7244 -2.4518 -1.9336 160 160 160
-2.8843 -2.5913 -1.9324 160 160 160
-3.0849 -2.7662 -1.9478 160 160 160
-3.2944 -2.9489 -1.9559 160 160 160
-3.5261 -3.1519 -1.9636 160 160 160
-3.8040 -3.3943 -1.9798 160 160 160
-4.1195 -3.6694 -1.9977 160 160 160
-4.4712 -3.9773 -2.0125 160 160 160
-4.9284 -4.3762 -2.0478 160 160 160
-5.4989 -4.8740 -2.0988 160 160 160
-6.2241 -5.5087 -2.1683 160 160 160
-7.1813 -6.3443 -2.2635 160 160 160
-8.1730 -7.2090 -2.3100 160 160 160
-10.2911 -9.0588 -2.5769 160 160 160
0.0001 -0.0462 -0.0018 160 160 160
0.0001 -0.0462 -0.0018 160 160 160
-8.8159 -7.8268 -1.3729 160 160 160
-13.7867 -12.2052 -1.7138 160 160 160
0.0001 -0.0462 -0.0018 160 160 160
0.0001 -0.0462 -0.0018 160 160 160
-14.5887 -12.8897 -0.4500 160 160 160
-14.6092 -12.8985 0.0013 160 160 160
-14.2336 -12.5636 0.4413 160 160 160
-10.1160 -8.9362 0.6284 160 160 160
0.0001 -0.0462 -0.0018 160 160 160
-9.6523 -8.5167 1.1984 160 160 160
0.0001 -0.0462 -0.0018 160 160 160
-11.4554 -10.0883 2.1417 160 160 160
-12.5838 -11.0696 2.7495 160 160 160
0.0001 -0.0462 -0.0018 160 160 160
-0.4574 -0.4453 -0.3618 160 160 160
-0.4808 -0.4655 -0.3603 160 160 160
-2.7360 -2.4329 -1.9317 160 160 160
-2.9007 -2.5749 -1.9333 160 160 160
-3.0982 -2.7452 -1.9461 160 160 160
-3.3101 -2.9278 -1.9551 160 160 160
-3.5486 -3.1342 -1.9660 160 160 160
-3.8239 -3.3713 -1.9798 160 160 160
-4.1437 -3.6470 -1.9990 160 160 160
-4.4987 -3.9541 -2.0144 160 160 160
-4.9569 -4.3490 -2.0490 160 160 160
-5.5274 -4.8408 -2.0988 160 160 160
-6.2652 -5.4790 -2.1714 160 160 160
-7.2289 -6.3101 -2.2667 160 160 160
-8.2050 -7.1510 -2.3071 160 160 160
-8.1878 -7.1311 -2.0401 160 160 160
0.0001 -0.0458 -0.0018 160 160 160
-13.5680 -11.8823 -2.5294 160 160 160
-13.7173 -12.0081 -2.1241 160 160 160
-13.7670 -12.0430 -1.7025 160 160 160
0.0001 -0.0458 -0.0018 160 160 160
0.0001 -0.0458 -0.0018 160 160 160
-14.6693 -12.8064 -0.4501 160 160 160
-14.7803 -12.8939 0.0013 160 160 160
-14.2261 -12.4078 0.4388 160 160 160
-10.1504 -8.8599 0.6272 160 160 160
0.0001 -0.0458 -0.0018 160 160 160
-10.7706 -9.3852 1.3305 160 160 160
-11.1045 -9.6712 1.7191 160 160 160
-12.8172 -11.1479 2.3841 160 160 160
-12.6490 -10.9944 2.7494 160 160 160
-11.8512 -10.3001 2.9535 160 160 160
-0.4570 -0.4401 -0.3598 160 160 160
-0.4858 -0.4646 -0.3622 160 160 160
-2.7457 -2.4133 -1.9289 160 160 160
-2.9153 -2.5578 -1.9333 160 160 160
-3.1151 -2.7281 -1.9469 160 160 160
-3.3304 -2.9124 -1.9575 160 160 160
-3.5594 -3.1074 -1.9621 160 160 160
-3.8471 -3.3526 -1.9819 160 160 160
-4.1666 -3.6259 -2.0004 160 160 160
-4.5211 -3.9277 -2.0144 160 160 160
-4.9903 -4.3275 -2.0525 160 160 160
-5.5614 -4.8158 -2.1016 160 160 160
-6.2978 -5.4436 -2.1719 160 160 160
-7.2711 -6.2757 -2.2690 160 160 160
-8.2534 -7.1124 -2.3096 160 160 160
-10.4255 -8.9658 -2.5847 160 160 160
-8.2121 -7.1317 -1.7821 160 160 160
-13.6100 -11.7853 -2.5250 160 160 160
-13.7273 -11.8780 -2.1151 160 160 160
-13.7664 -11.9033 -1.6940 160 160 160
0.0001 -0.0454 -0.0018 160 160 160
0.0001 -0.0454 -0.0018 160 160 160
-14.6909 -12.6771 -0.4486 160 160 160
-14.9519 -12.8968 0.0013 160 160 160
-14.2273 -12.2654 0.4366 160 160 160
-10.1859 -8.7879 0.6263 160 160 160
-12.5312 -10.7971 1.1554 160 160 160
-10.6699 -9.1936 1.3117 160 160 160
-13.6789 -11.7651 2.1075 160 160 160
0.0001 -0.0454 -0.0018 160 160 160
-12.6649 -10.8846 2.7397 160 160 160
-12.0445 -10.3463 2.9868 160 160 160
-0.4632 -0.4404 -0.3628 160 160 160
-0.4868 -0.4604 -0.3612 160 160 160
-2.7592 -2.3971 -1.9289 160 160 160
-2.9283 -2.5394 -1.9324 160 160 160
-3.1333 -2.7121 -1.9486 160 160 160
-3.3454 -2.8917 -1.9567 160 160 160
-3.5825 -3.0913 -1.9652 160 160 160
-3.8619 -3.3264 -1.9797 160 160 160
-4.1800 -3.5954 -1.9970 160 160 160
-4.5420 -3.9000 -2.0138 160 160 160
-5.0104 -4.2946 -2.0507 160 160 160
-5.5858 -4.7808 -2.1005 160 160 160
-6.3421 -5.4182 -2.1764 160 160 160
-7.3143 -6.2396 -2.2713 160 160 160
-8.2925 -7.0631 -2.3092 160 160 160
-8.4297 -7.1740 -2.0801 160 160 160
-11.7605 -10.0757 -2.5388 160 160 160
-13.6608 -11.6921 -2.5219 160 160 160
-13.7317 -11.7443 -2.1054 160 160 160
-13.7632 -11.7628 -1.6853 160 160 160
0.0001 -0.0451 -0.0018 160 160 160
0.0001 -0.0451 -0.0018 160 160 160
-14.6797 -12.5207 -0.4461 160 160 160
-15.1262 -12.8956 0.0013 160 160 160
-14.2228 -12.1194 0.4343 160 160 160
0.0001 -0.0451 -0.0018 160 160 160
0.0001 -0.0451 -0.0018 160 160 160
-10.9229 -9.3016 1.3362 160 160 160
-10.3870 -8.8410 1.5920 160 160 160
-13.0088 -11.0574 2.3963 160 160 160
-12.7558 -10.8354 2.7458 160 160 160
0.0001 -0.0451 -0.0018 160 160 160
-0.4589 -0.4318 -0.3577 160 160 160
-0.4786 -0.4481 -0.3534 160 160 160
-2.7687 -2.3773 -1.9261 160 160 160
-2.9454 -2.5244 -1.9342 160 160 160
-3.1500 -2.6947 -1.9495 160 160 160
-3.3618 -2.8719 -1.9567 160 160 160
-3.5958 -3.0666 -1.9629 160 160 160
-3.8821 -3.3048 -1.9805 160 160 160
-4.2033 -3.5733 -1.9983 160 160 160
-4.5626 -3.8722 -2.0131 160 160 160
-5.0363 -4.2665 -2.0513 160 160 160
-5.6174 -4.7519 -2.1021 160 160 160
-6.3729 -5.3812 -2.1764 160 160 160
-7.3573 -6.2032 -2.2736 160 160 160
-8.3493 -7.0286 -2.3138 160 160 160
0.0001 -0.0448 -0.0018 160 160 160
-8.4577 -7.1745 -1.8174 160 160 160
-8.4662 -7.1791 -1.5560 160 160 160
-13.7259 -11.6032 -2.0943 160 160 160
-13.7665 -11.6291 -1.6776 160 160 160
0.0001 -0.0448 -0.0018 160 160 160
0.0001 -0.0448 -0.0018 160 160 160
0.0001 -0.0448 -0.0018 160 160 160
-15.3073 -12.8980 0.0013 160 160 160
-14.2232 -11.9792 0.4321 160 160 160
-14.2601 -12.0016 0.8689 160 160 160
-12.6328 -10.6333 1.1534 160 160 160
-10.5287 -8.8635 1.2817 160 160 160
0.0001 -0.0448 -0.0018 160 160 160
-12.9824 -10.9069 2.3798 160 160 160
-12.7435 -10.6994 2.7299 160 160 160
-12.6661 -10.6271 3.1106 160 160 160
-0.4598 -0.4278 -0.3567 160 160 160
-0.4903 -0.4529 -0.3602 160 160 160
-2.7794 -2.3587 -1.9242 160 160 160
-2.9582 -2.5060 -1.9333 160 160 160
-3.1623 -2.6739 -1.9478 160 160 160
-3.3785 -2.8515 -1.9567 160 160 160
-3.6132 -3.0454 -1.9629 160 160 160
-3.9051 -3.2857 -1.9826 160 160 160
-4.2241 -3.5479 -1.9983 160 160 160
-4.5861 -3.8468 -2.0138 160 160 160
-5.0620 -4.2383 -2.0519 160 160 160
-5.6467 -4.7194 -2.1027 160 160 160
-6.4020 -5.3429 -2.1759 160 160 160
-7.3982 -6.1628 -2.2750 160 160 160
-8.3981 -6.9848 -2.3158 160 160 160
-8.4564 -7.0279 -2.0664 160 160 160
0.0001 -0.0444 -0.0018 160 160 160
-8.4672 -7.0942 -1.5485 160 160 160
-13.7221 -11.4651 -2.0836 160 160 160
-13.7626 -11.4907 -1.6691 160 160 160
0.0001 -0.0444 -0.0018 160 160 160
0.0001 -0.0444 -0.0018 160 160 160
-15.1762 -12.6437 -0.4567 160 160 160
