ply
format ascii 1.0
element vertex 1297
property float x
property float y
property float z
property uchar red
property uchar green
property uchar blue
end_header
-14.7934 29.0712 -1.6794 107 203 119
-14.7934 29.0712 -1.6709 107 203 119
-14.7934 29.0712 -1.6624 107 203 119
-14.7934 29.0712 -1.6539 107 203 119
-14.7934 29.0712 -1.6453 107 203 119
-14.7934 29.0712 -1.6368 107 203 119
-14.7934 29.0712 -1.6283 107 203 119
-14.7934 29.0712 -1.6198 107 203 119
-14.7934 29.0712 -1.6112 107 203 119
-14.7934 29.0712 -1.6027 107 203 119
-14.7934 29.0712 -1.5942 107 203 119
-14.7934 29.0712 -1.5857 107 203 119
-14.7934 29.0712 -1.5771 107 203 119
-14.7934 29.0712 -1.5686 107 203 119
-14.7934 29.0712 -1.5601 107 203 119
-14.7934 29.0712 -1.5516 107 203 119
-14.7934 29.0712 -1.5430 107 203 119
-14.7934 29.0712 -1.5345 107 203 119
-14.7934 29.0712 -1.5260 107 203 119
-14.7934 29.0712 -1.5175 107 203 119
-14.7934 29.0712 -1.5089 107 203 119
-14.7934 29.0712 -1.5004 107 203 119
-14.7934 29.0712 -1.4919 107 203 119
-14.7934 29.0712 -1.4834 107 203 119
-14.7934 29.0712 -1.4748 107 203 119
-14.7934 29.0712 -1.4663 107 203 119
-14.7934 29.0712 -1.4578 107 203 119
-14.7934 29.0712 -1.4493 107 203 119
-14.7934 29.0712 -1.4407 107 203 119
-14.7934 29.0712 -1.4322 107 203 119
-14.7934 29.0712 -1.4237 107 203 119
-14.7934 29.0712 -1.4152 107 203 119
-14.7934 29.0712 -1.4066 107 203 119
-14.7934 29.0712 -1.3981 107 203 119
-14.7934 29.0712 -1.3896 107 203 119
-14.7934 29.0712 -1.3811 107 203 119
-14.7934 29.0712 -1.3725 107 203 119
-14.7934 29.0712 -1.3640 107 203 119
-14.7934 29.0712 -1.3555 107 203 119
-14.7934 29.0712 -1.3470 107 203 119
-14.7934 29.0712 -1.3384 107 203 119
-14.7934 29.0712 -1.3299 107 203 119
-14.7934 29.0712 -1.3214 107 203 119
-14.7934 29.0712 -1.3129 107 203 119
-14.7934 29.0712 -1.3043 107 203 119
-14.7934 29.0712 -1.2958 107 203 119
-14.7934 29.0712 -1.2873 107 203 119
-14.7934 29.0712 -1.2788 107 203 119
-14.7934 29.0712 -1.2702 107 203 119
-14.7934 29.0712 -1.2617 107 203 119
-14.7934 29.0712 -1.2532 107 203 119
-14.7934 29.0712 -1.2447 107 203 119
-14.7934 29.0712 -1.2361 107 203 119
-14.7934 29.0712 -1.2276 107 203 119
-14.7934 29.0712 -1.2191 107 203 119
-14.7934 29.0712 -1.2105 107 203 119
-14.7934 29.0712 -1.2020 107 203 119
-14.7934 29.0712 -1.1935 107 203 119
-14.7934 29.0712 -1.1850 107 203 119
-14.7934 29.0712 -1.1764 107 203 119
-14.7934 29.0712 -1.1679 107 203 119
-14.7934 29.0712 -1.1594 107 203 119
-14.7934 29.0712 -1.1509 107 203 119
-14.7934 29.0712 -1.1423 107 203 119
-14.7934 29.0712 -1.1338 107 203 119
-14.7934 29.0712 -1.1253 107 203 119
-14.7934 29.0712 -1.1168 107 203 119
-14.7934 29.0712 -1.1082 107 203 119
-14.7934 29.0712 -1.0997 107 203 119
-14.7934 29.0712 -1.0912 107 203 119
-14.7934 29.0712 -1.0827 107 203 119
-14.7934 29.0712 -1.0741 107 203 119
-14.7934 29.0712 -1.0656 107 203 119
-14.7934 29.0712 -1.0571 107 203 119
-14.7934 29.0712 -1.0486 107 203 119
-14.7934 29.0712 -1.0400 107 203 119
-14.7934 29.0712 -1.0315 107 203 119
-14.7934 29.0712 -1.0230 107 203 119
-14.7934 29.0712 -1.0145 107 203 119
-14.7934 29.0712 -1.0059 107 203 119
-14.7934 29.0712 -0.9974 107 203 119
-14.7934 29.0712 -0.9889 107 203 119
-14.7934 29.0712 -0.9804 107 203 119
-14.7934 29.0712 -0.9718 107 203 119
-14.7934 29.0712 -0.9633 107 203 119
-14.7934 29.0712 -0.9548 107 203 119
-14.7934 29.0712 -0.9463 107 203 119
-14.7934 29.0712 -0.9377 107 203 119
-14.7934 29.0712 -0.9292 107 203 119
-14.7934 29.0712 -0.9207 107 203 119
-14.7934 29.0712 -0.9122 107 203 119
-14.7934 29.0712 -0.9036 107 203 119
-14.7934 29.0712 -0.8951 107 203 119
-14.7934 29.0712 -0.8866 107 203 119
-14.7934 29.0712 -0.8781 107 203 119
-14.7934 29.0712 -0.8695 107 203 119
-14.7934 29.0712 -0.8610 107 203 119
-14.7934 29.0712 -0.8525 107 203 119
-14.7934 29.0712 -0.8440 107 203 119
-14.7934 29.0712 -0.8354 107 203 119
-14.7934 29.0712 -0.8269 107 203 119
-14.7934 29.0712 -0.8184 107 203 119
-14.7934 29.0712 -0.8099 107 203 119
-14.7934 29.0712 -0.8013 107 203 119
-14.7934 29.0712 -0.7928 107 203 119
-14.7934 29.0712 -0.7843 107 203 119
-14.7934 29.0712 -0.7758 107 203 119
-14.7934 29.0712 -0.7672 107 203 119
-14.7934 29.0712 -0.7587 107 203 119
-14.7934 29.0712 -0.7502 107 203 119
-14.7934 29.0712 -0.7417 107 203 119
-14.7934 29.0712 -0.7331 107 203 119
-14.7934 29.0712 -0.7246 107 203 119
-14.7934 29.0712 -0.7161 107 203 119
-14.7934 29.0712 -0.7076 107 203 119
-14.7934 29.0712 -0.6990 107 203 119
-14.7934 29.0712 -0.6905 107 203 119
-14.7934 29.0712 -0.6820 107 203 119
-14.7934 29.0712 -0.6735 107 203 119
-14.7934 29.0712 -0.6649 107 203 119
-14.7934 29.0712 -0.6564 107 203 119
-14.7934 29.0712 -0.6479 107 203 119
-14.7934 29.0712 -0.6394 107 203 119
-14.7934 29.0712 -0.6308 107 203 119
-14.7934 29.0712 -0.6223 107 203 119
-14.7934 29.0712 -0.6138 107 203 119
-14.7934 29.0712 -0.6053 107 203 119
-14.7934 29.0712 -0.5967 107 203 119
-14.7934 29.0712 -0.5882 107 203 119
-14.7934 29.0712 -0.5797 107 203 119
-14.7934 29.0712 -0.5712 107 203 119
-14.7934 29.0712 -0.5626 107 203 119
-14.7934 29.0712 -0.5541 107 203 119
-14.7934 29.0712 -0.5456 107 203 119
-14.7934 29.0712 -0.5371 107 203 119
-14.7934 29.0712 -0.5285 107 203 119
-14.7934 29.0712 -0.5200 107 203 119
-14.7934 29.0712 -0.5115 107 203 119
-14.7934 29.0712 -0.5030 107 203 119
-14.7934 29.0712 -0.4944 107 203 119
-14.7934 29.0712 -0.4859 107 203 119
-14.7934 29.0712 -0.4774 107 203 119
-14.7934 29.0712 -0.4689 107 203 119
-14.7934 29.0712 -0.4603 107 203 119
-14.7934 29.0712 -0.4518 107 203 119
-14.7934 29.0712 -0.4433 107 203 119
-14.7934 29.0712 -0.4348 107 203 119
-14.7934 29.0712 -0.4262 107 203 119
-14.7934 29.0712 -0.4177 107 203 119
-14.7934 29.0712 -0.4092 107 203 119
-14.7934 29.0712 -0.4007 107 203 119
-14.7934 29.0712 -0.3921 107 203 119
-14.7934 29.0712 -0.3836 107 203 119
-14.7934 29.0712 -0.3751 107 203 119
-14.7934 29.0712 -0.3666 107 203 119
-14.7934 29.0712 -0.3580 107 203 119
-14.7934 29.0712 -0.3495 107 203 119
-14.7934 29.0712 -0.3410 107 203 119
-14.7934 29.0712 -0.3324 107 203 119
-14.7934 29.0712 -0.3239 107 203 119
-14.7934 29.0712 -0.3154 107 203 119
-14.7934 29.0712 -0.3069 107 203 119
-14.7934 29.0712 -0.2983 107 203 119
-14.7934 29.0712 -0.2898 107 203 119
-14.7934 29.0712 -0.2813 107 203 119
-14.7934 29.0712 -0.2728 107 203 119
-14.7934 29.0712 -0.2642 107 203 119
-14.7934 29.0712 -0.2557 107 203 119
-14.7934 29.0712 -0.2472 107 203 119
-14.7934 29.0712 -0.2387 107 203 119
-14.7934 29.0712 -0.2301 107 203 119
-14.7934 29.0712 -0.2216 107 203 119
-14.7934 29.0712 -0.2131 107 203 119
-14.7934 29.0712 -0.2046 107 203 119
-14.7934 29.0712 -0.1960 107 203 119
-14.7934 29.0712 -0.1875 107 203 119
-14.7934 29.0712 -0.1790 107 203 119
-14.7934 29.0712 -0.1705 107 203 119
-14.7934 29.0712 -0.1619 107 203 119
-14.7934 29.0712 -0.1534 107 203 119
-14.7934 29.0712 -0.1449 107 203 119
-14.7934 29.0712 -0.1364 107 203 119
-14.7934 29.0712 -0.1278 107 203 119
-19.6959 30.2804 -1.8244 107 203 119
-19.6959 30.2804 -1.8158 107 203 119
-19.6959 30.2804 -1.8073 107 203 119
-19.6959 30.2804 -1.7988 107 203 119
-19.6959 30.2804 -1.7903 107 203 119
-19.6959 30.2804 -1.7817 107 203 119
-19.6959 30.2804 -1.7732 107 203 119
-19.6959 30.2804 -1.7647 107 203 119
-19.6959 30.2804 -1.7562 107 203 119
-19.6959 30.2804 -1.7476 107 203 119
-19.6959 30.2804 -1.7391 107 203 119
-19.6959 30.2804 -1.7306 107 203 119
-19.6959 30.2804 -1.7221 107 203 119
-19.6959 30.2804 -1.7135 107 203 119
-19.6959 30.2804 -1.7050 107 203 119
-19.6959 30.2804 -1.6965 107 203 119
-19.6959 30.2804 -1.6880 107 203 119
-19.6959 30.2804 -1.6794 107 203 119
-19.6959 30.2804 -1.6709 107 203 119
-19.6959 30.2804 -1.6624 107 203 119
-19.6959 30.2804 -1.6539 107 203 119
-19.6959 30.2804 -1.6453 107 203 119
-19.6959 30.2804 -1.6368 107 203 119
-19.6959 30.2804 -1.6283 107 203 119
-19.6959 30.2804 -1.6198 107 203 119
-19.6959 30.2804 -1.6112 107 203 119
-19.6959 30.2804 -1.6027 107 203 119
-19.6959 30.2804 -1.5942 107 203 119
-19.6959 30.2804 -1.5857 107 203 119
-19.6959 30.2804 -1.5771 107 203 119
-19.6959 30.2804 -1.5686 107 203 119
-19.6959 30.2804 -1.5601 107 203 119
-19.6959 30.2804 -1.5516 107 203 119
-19.6959 30.2804 -1.5430 107 203 119
-19.6959 30.2804 -1.5345 107 203 119
-19.6959 30.2804 -1.5260 107 203 119
-19.6959 30.2804 -1.5175 107 203 119
-19.6959 30.2804 -1.5089 107 203 119
-19.6959 30.2804 -1.5004 107 203 119
-19.6959 30.2804 -1.4919 107 203 119
-19.6959 30.2804 -1.4834 107 203 119
-19.6959 30.2804 -1.4748 107 203 119
-19.6959 30.2804 -1.4663 107 203 119
-19.6959 30.2804 -1.4578 107 203 119
-19.6959 30.2804 -1.4493 107 203 119
-19.6959 30.2804 -1.4407 107 203 119
-19.6959 30.2804 -1.4322 107 203 119
-19.6959 30.2804 -1.4237 107 203 119
-19.6959 30.2804 -1.4152 107 203 119
-19.6959 30.2804 -1.4066 107 203 119
-19.6959 30.2804 -1.3981 107 203 119
-19.6959 30.2804 -1.3896 107 203 119
-19.6959 30.2804 -1.3811 107 203 119
-19.6959 30.2804 -1.3725 107 203 119
-19.6959 30.2804 -1.3640 107 203 119
-19.6959 30.2804 -1.3555 107 203 119
-19.6959 30.2804 -1.3470 107 203 119
-19.6959 30.2804 -1.3384 107 203 119
-19.6959 30.2804 -1.3299 107 203 119
-19.6959 30.2804 -1.3214 107 203 119
-19.6959 30.2804 -1.3129 107 203 119
-19.6959 30.2804 -1.3043 107 203 119
-19.6959 30.2804 -1.2958 107 203 119
-19.6959 30.2804 -1.2873 107 203 119
-19.6959 30.2804 -1.2788 107 203 119
-19.6959 30.2804 -1.2702 107 203 119
-19.6959 30.2804 -1.2617 107 203 119
-19.6959 30.2804 -1.2532 107 203 119
-19.6959 30.2804 -1.2447 107 203 119
-19.6959 30.2804 -1.2361 107 203 119
-19.6959 30.2804 -1.2276 107 203 119
-19.6959 30.2804 -1.2191 107 203 119
-19.6959 30.2804 -1.2105 107 203 119
-19.6959 30.2804 -1.2020 107 203 119
-19.6959 30.2804 -1.1935 107 203 119
-19.6959 30.2804 -1.1850 107 203 119
-19.6959 30.2804 -1.1764 107 203 119
-19.6959 30.2804 -1.1679 107 203 119
-19.6959 30.2804 -1.1594 107 203 119
-19.6959 30.2804 -1.1509 107 203 119
-19.6959 30.2804 -1.1423 107 203 119
-19.6959 30.2804 -1.1338 107 203 119
-19.6959 30.2804 -1.1253 107 203 119
-19.6959 30.2804 -1.1168 107 203 119
-19.6959 30.2804 -1.1082 107 203 119
-19.6959 30.2804 -1.0997 107 203 119
-19.6959 30.2804 -1.0912 107 203 119
-19.6959 30.2804 -1.0827 107 203 119
-19.6959 30.2804 -1.0741 107 203 119
-19.6959 30.2804 -1.0656 107 203 119
-19.6959 30.2804 -1.0571 107 203 119
-19.6959 30.2804 -1.0486 107 203 119
-19.6959 30.2804 -1.0400 107 203 119
-19.6959 30.2804 -1.0315 107 203 119
-19.6959 30.2804 -1.0230 107 203 119
-19.6959 30.2804 -1.0145 107 203 119
-19.6959 30.2804 -1.0059 107 203 119
-19.6959 30.2804 -0.9974 107 203 119
-19.6959 30.2804 -0.9889 107 203 119
-19.6959 30.2804 -0.9804 107 203 119
-19.6959 30.2804 -0.9718 107 203 119
-19.6959 30.2804 -0.9633 107 203 119
-19.6959 30.2804 -0.9548 107 203 119
-19.6959 30.2804 -0.9463 107 203 119
-19.6959 30.2804 -0.9377 107 203 119
-19.6959 30.2804 -0.9292 107 203 119
-19.6959 30.2804 -0.9207 107 203 119
-19.6959 30.2804 -0.9122 107 203 119
-19.6959 30.2804 -0.9036 107 203 119
-19.6959 30.2804 -0.8951 107 203 119
-19.6959 30.2804 -0.8866 107 203 119
-19.6959 30.2804 -0.8781 107 203 119
-19.6959 30.2804 -0.8695 107 203 119
-19.6959 30.2804 -0.8610 107 203 119
-19.6959 30.2804 -0.8525 107 203 119
-19.6959 30.2804 -0.8440 107 203 119
-19.6959 30.2804 -0.8354 107 203 119
-19.6959 30.2804 -0.8269 107 203 119
-19.6959 30.2804 -0.8184 107 203 119
-19.6959 30.2804 -0.8099 107 203 119
-19.6959 30.2804 -0.8013 107 203 119
-19.6959 30.2804 -0.7928 107 203 119
-19.6959 30.2804 -0.7843 107 203 119
-19.6959 30.2804 -0.7758 107 203 119
-19.6959 30.2804 -0.7672 107 203 119
-19.6959 30.2804 -0.7587 107 203 119
-19.6959 30.2804 -0.7502 107 203 119
-19.6959 30.2804 -0.7417 107 203 119
-19.6959 30.2804 -0.7331 107 203 119
-19.6959 30.2804 -0.7246 107 203 119
-19.6959 30.2804 -0.7161 107 203 119
-19.6959 30.2804 -0.7076 107 203 119
-19.6959 30.2804 -0.6990 107 203 119
-19.6959 30.2804 -0.6905 107 203 119
-19.6959 30.2804 -0.6820 107 203 119
-19.6959 30.2804 -0.6735 107 203 119
-19.6959 30.2804 -0.6649 107 203 119
-19.6959 30.2804 -0.6564 107 203 119
-19.6959 30.2804 -0.6479 107 203 119
-19.6959 30.2804 -0.6394 107 203 119
-19.6959 30.2804 -0.6308 107 203 119
-19.6959 30.2804 -0.6223 107 203 119
-19.6959 30.2804 -0.6138 107 203 119
-19.6959 30.2804 -0.6053 107 203 119
-19.6959 30.2804 -0.5967 107 203 119
-19.6959 30.2804 -0.5882 107 203 119
-19.6959 30.2804 -0.5797 107 203 119
-19.6959 30.2804 -0.5712 107 203 119
-19.6959 30.2804 -0.5626 107 203 119
-19.6959 30.2804 -0.5541 107 203 119
-19.6959 30.2804 -0.5456 107 203 119
-19.6959 30.2804 -0.5371 107 203 119
-19.6959 30.2804 -0.5285 107 203 119
-19.6959 30.2804 -0.5200 107 203 119
-19.6959 30.2804 -0.5115 107 203 119
-19.6959 30.2804 -0.5030 107 203 119
-19.6959 30.2804 -0.4944 107 203 119
-19.6959 30.2804 -0.4859 107 203 119
-19.6959 30.2804 -0.4774 107 203 119
-19.6959 30.2804 -0.4689 107 203 119
-19.6959 30.2804 -0.4603 107 203 119
-19.6959 30.2804 -0.4518 107 203 119
-19.6959 30.2804 -0.4433 107 203 119
-19.6959 30.2804 -0.4348 107 203 119
-19.6959 30.2804 -0.4262 107 203 119
-19.6959 30.2804 -0.4177 107 203 119
-19.6959 30.2804 -0.4092 107 203 119
-19.6959 30.2804 -0.4007 107 203 119
-19.6959 30.2804 -0.3921 107 203 119
-19.6959 30.2804 -0.3836 107 203 119
-19.6959 30.2804 -0.3751 107 203 119
-19.6959 30.2804 -0.3666 107 203 119
-19.6959 30.2804 -0.3580 107 203 119
-19.6959 30.2804 -0.3495 107 203 119
-19.6959 30.2804 -0.3410 107 203 119
-19.6959 30.2804 -0.3324 107 203 119
-19.6959 30.2804 -0.3239 107 203 119
-19.6959 30.2804 -0.3154 107 203 119
-19.6959 30.2804 -0.3069 107 203 119
-19.6959 30.2804 -0.2983 107 203 119
-19.6959 30.2804 -0.2898 107 203 119
-19.6959 30.2804 -0.2813 107 203 119
-19.6959 30.2804 -0.2728 107 203 119
-19.6959 30.2804 -0.2642 107 203 119
-19.6959 30.2804 -0.2557 107 203 119
-19.6959 30.2804 -0.2472 107 203 119
-19.6959 30.2804 -0.2387 107 203 119
-19.6959 30.2804 -0.2301 107 203 119
-19.6959 30.2804 -0.2216 107 203 119
-19.6959 30.2804 -0.2131 107 203 119
-19.6959 30.2804 -0.2046 107 203 119
-19.6959 30.2804 -0.1960 107 203 119
-19.6959 30.2804 -0.1875 107 203 119
-19.6959 30.2804 -0.1790 107 203 119
-19.6959 30.2804 -0.1705 107 203 119
-19.6959 30.2804 -0.1619 107 203 119
-19.6959 30.2804 -0.1534 107 203 119
-19.6959 30.2804 -0.1449 107 203 119
-19.6959 30.2804 -0.1364 107 203 119
-19.6959 30.2804 -0.1278 107 203 119
-20.2290 28.1192 -1.8244 107 203 119
-20.2290 28.1192 -1.8158 107 203 119
-20.2290 28.1192 -1.8073 107 203 119
-20.2290 28.1192 -1.7988 107 203 119
-20.2290 28.1192 -1.7903 107 203 119
-20.2290 28.1192 -1.7817 107 203 119
-20.2290 28.1192 -1.7732 107 203 119
-20.2290 28.1192 -1.7647 107 203 119
-20.2290 28.1192 -1.7562 107 203 119
-20.2290 28.1192 -1.7476 107 203 119
-20.2290 28.1192 -1.7391 107 203 119
-20.2290 28.1192 -1.7306 107 203 119
-20.2290 28.1192 -1.7221 107 203 119
-20.2290 28.1192 -1.7135 107 203 119
-20.2290 28.1192 -1.7050 107 203 119
-20.2290 28.1192 -1.6965 107 203 119
-20.2290 28.1192 -1.6880 107 203 119
-20.2290 28.1192 -1.6794 107 203 119
-20.2290 28.1192 -1.6709 107 203 119
-20.2290 28.1192 -1.6624 107 203 119
-20.2290 28.1192 -1.6539 107 203 119
-20.2290 28.1192 -1.6453 107 203 119
-20.2290 28.1192 -1.6368 107 203 119
-20.2290 28.1192 -1.6283 107 203 119
-20.2290 28.1192 -1.6198 107 203 119
-20.2290 28.1192 -1.6112 107 203 119
-20.2290 28.1192 -1.6027 107 203 119
-20.2290 28.1192 -1.5942 107 203 119
-20.2290 28.1192 -1.5857 107 203 119
-20.2290 28.1192 -1.5771 107 203 119
-20.2290 28.1192 -1.5686 107 203 119
-20.2290 28.1192 -1.5601 107 203 119
-20.2290 28.1192 -1.5516 107 203 119
-20.2290 28.1192 -1.5430 107 203 119
-20.2290 28.1192 -1.5345 107 203 119
-20.2290 28.1192 -1.5260 107 203 119
-20.2290 28.1192 -1.5175 107 203 119
-20.2290 28.1192 -1.5089 107 203 119
-20.2290 28.1192 -1.5004 107 203 119
-20.2290 28.1192 -1.4919 107 203 119
-20.2290 28.1192 -1.4834 107 203 119
-20.2290 28.1192 -1.4748 107 203 119
-20.2290 28.1192 -1.4663 107 203 119
-20.2290 28.1192 -1.4578 107 203 119
-20.2290 28.1192 -1.4493 107 203 119
-20.2290 28.1192 -1.4407 107 203 119
-20.2290 28.1192 -1.4322 107 203 119
-20.2290 28.1192 -1.4237 107 203 119
-20.2290 28.1192 -1.4152 107 203 119
-20.2290 28.1192 -1.4066 107 203 119
-20.2290 28.1192 -1.3981 107 203 119
-20.2290 28.1192 -1.3896 107 203 119
-20.2290 28.1192 -1.3811 107 203 119
-20.2290 28.1192 -1.3725 107 203 119
-20.2290 28.1192 -1.3640 107 203 119
-20.2290 28.1192 -1.3555 107 203 119
-20.2290 28.1192 -1.3470 107 203 119
-20.2290 28.1192 -1.3384 107 203 119
-20.2290 28.1192 -1.3299 107 203 119
-20.2290 28.1192 -1.3214 107 203 119
-20.2290 28.1192 -1.3129 107 203 119
-20.2290 28.1192 -1.3043 107 203 119
-20.2290 28.1192 -1.2958 107 203 119
-20.2290 28.1192 -1.2873 107 203 119
-20.2290 28.1192 -1.2788 107 203 119
-20.2290 28.1192 -1.2702 107 203 119
-20.2290 28.1192 -1.2617 107 203 119
-20.2290 28.1192 -1.2532 107 203 119
-20.2290 28.1192 -1.2447 107 203 119
-20.2290 28.1192 -1.2361 107 203 119
-20.2290 28.1192 -1.2276 107 203 119
-20.2290 28.1192 -1.2191 107 203 119
-20.2290 28.1192 -1.2105 107 203 119
-20.2290 28.1192 -1.2020 107 203 119
-20.2290 28.1192 -1.1935 107 203 119
-20.2290 28.1192 -1.1850 107 203 119
-20.2290 28.1192 -1.1764 107 203 119
-20.2290 28.1192 -1.1679 107 203 119
-20.2290 28.1192 -1.1594 107 203 119
-20.2290 28.1192 -1.1509 107 203 119
-20.2290 28.1192 -1.1423 107 203 119
-20.2290 28.1192 -1.1338 107 203 119
-20.2290 28.1192 -1.1253 107 203 119
-20.2290 28.1192 -1.1168 107 203 119
-20.2290 28.1192 -1.1082 107 203 119
-20.2290 28.1192 -1.0997 107 203 119
-20.2290 28.1192 -1.0912 107 203 119
-20.2290 28.1192 -1.0827 107 203 119
-20.2290 28.1192 -1.0741 107 203 119
-20.2290 28.1192 -1.0656 107 203 119
-20.2290 28.1192 -1.0571 107 203 119
-20.2290 28.1192 -1.0486 107 203 119
-20.2290 28.1192 -1.0400 107 203 119
-20.2290 28.1192 -1.0315 107 203 119
-20.2290 28.1192 -1.0230 107 203 119
-20.2290 28.1192 -1.0145 107 203 119
-20.2290 28.1192 -1.0059 107 203 119
-20.2290 28.1192 -0.9974 107 203 119
-20.2290 28.1192 -0.9889 107 203 119
-20.2290 28.1192 -0.9804 107 203 119
-20.2290 28.1192 -0.9718 107 203 119
-20.2290 28.1192 -0.9633 107 203 119
-20.2290 28.1192 -0.9548 107 203 119
-20.2290 28.1192 -0.9463 107 203 119
-20.2290 28.1192 -0.9377 107 203 119
-20.2290 28.1192 -0.9292 107 203 119
-20.2290 28.1192 -0.9207 107 203 119
-20.2290 28.1192 -0.9122 107 203 119
-20.2290 28.1192 -0.9036 107 203 119
-20.2290 28.1192 -0.8951 107 203 119
-20.2290 28.1192 -0.8866 107 203 119
-20.2290 28.1192 -0.8781 107 203 119
-20.2290 28.1192 -0.8695 107 203 119
-20.2290 28.1192 -0.8610 107 203 119
-20.2290 28.1192 -0.8525 107 203 119
-20.2290 28.1192 -0.8440 107 203 119
-20.2290 28.1192 -0.8354 107 203 119
-20.2290 28.1192 -0.8269 107 203 119
-20.2290 28.1192 -0.8184 107 203 119
-20.2290 28.1192 -0.8099 107 203 119
-20.2290 28.1192 -0.8013 107 203 119
-20.2290 28.1192 -0.7928 107 203 119
-20.2290 28.1192 -0.7843 107 203 119
-20.2290 28.1192 -0.7758 107 203 119
-20.2290 28.1192 -0.7672 107 203 119
-20.2290 28.1192 -0.7587 107 203 119
-20.2290 28.1192 -0.7502 107 203 119
-20.2290 28.1192 -0.7417 107 203 119
-20.2290 28.1192 -0.7331 107 203 119
-20.2290 28.1192 -0.7246 107 203 119
-20.2290 28.1192 -0.7161 107 203 119
-20.2290 28.1192 -0.7076 107 203 119
-20.2290 28.1192 -0.6990 107 203 119
-20.2290 28.1192 -0.6905 107 203 119
-20.2290 28.1192 -0.6820 107 203 119
-20.2290 28.1192 -0.6735 107 203 119
-20.2290 28.1192 -0.6649 107 203 119
-20.2290 28.1192 -0.6564 107 203 119
-20.2290 28.1192 -0.6479 107 203 119
-20.2290 28.1192 -0.6394 107 203 119
-20.2290 28.1192 -0.6308 107 203 119
-20.2290 28.1192 -0.6223 107 203 119
-20.2290 28.1192 -0.6138 107 203 119
-20.2290 28.1192 -0.6053 107 203 119
-20.2290 28.1192 -0.5967 107 203 119
-20.2290 28.1192 -0.5882 107 203 119
-20.2290 28.1192 -0.5797 107 203 119
-20.2290 28.1192 -0.5712 107 203 119
-20.2290 28.1192 -0.5626 107 203 119
-20.2290 28.1192 -0.5541 107 203 119
-20.2290 28.1192 -0.5456 107 203 119
-20.2290 28.1192 -0.5371 107 203 119
-20.2290 28.1192 -0.5285 107 203 119
-20.2290 28.1192 -0.5200 107 203 119
-20.2290 28.1192 -0.5115 107 203 119
-20.2290 28.1192 -0.5030 107 203 119
-20.2290 28.1192 -0.4944 107 203 119
-20.2290 28.1192 -0.4859 107 203 119
-20.2290 28.1192 -0.4774 107 203 119
-20.2290 28.1192 -0.4689 107 203 119
-20.2290 28.1192 -0.4603 107 203 119
-20.2290 28.1192 -0.4518 107 203 119
-20.2290 28.1192 -0.4433 107 203 119
-20.2290 28.1192 -0.4348 107 203 119
-20.2290 28.1192 -0.4262 107 203 119
-20.2290 28.1192 -0.4177 107 203 119
-20.2290 28.1192 -0.4092 107 203 119
-20.2290 28.1192 -0.4007 107 203 119
-20.2290 28.1192 -0.3921 107 203 119
-20.2290 28.1192 -0.3836 107 203 119
-20.2290 28.1192 -0.3751 107 203 119
-20.2290 28.1192 -0.3666 107 203 119
-20.2290 28.1192 -0.3580 107 203 119
-20.2290 28.1192 -0.3495 107 203 119
-20.2290 28.1192 -0.3410 107 203 119
-20.2290 28.1192 -0.3324 107 203 119
-20.2290 28.1192 -0.3239 107 203 119
-20.2290 28.1192 -0.3154 107 203 119
-20.2290 28.1192 -0.3069 107 203 119
-20.2290 28.1192 -0.2983 107 203 119
-20.2290 28.1192 -0.2898 107 203 119
-20.2290 28.1192 -0.2813 107 203 119
-20.2290 28.1192 -0.2728 107 203 119
-20.2290 28.1192 -0.2642 107 203 119
-20.2290 28.1192 -0.2557 107 203 119
-20.2290 28.1192 -0.2472 107 203 119
-20.2290 28.1192 -0.2387 107 203 119
-20.2290 28.1192 -0.2301 107 203 119
-20.2290 28.1192 -0.2216 107 203 119
-20.2290 28.1192 -0.2131 107 203 119
-20.2290 28.1192 -0.2046 107 203 119
-20.2290 28.1192 -0.1960 107 203 119
-20.2290 28.1192 -0.1875 107 203 119
-20.2290 28.1192 -0.1790 107 203 119
-20.2290 28.1192 -0.1705 107 203 119
-20.2290 28.1192 -0.1619 107 203 119
-20.2290 28.1192 -0.1534 107 203 119
-20.2290 28.1192 -0.1449 107 203 119
-20.2290 28.1192 -0.1364 107 203 119
-20.2290 28.1192 -0.1278 107 203 119
-15.3265 26.9100 -1.8244 107 203 119
-15.3265 26.9100 -1.8158 107 203 119
-15.3265 26.9100 -1.8073 107 203 119
-15.3265 26.9100 -1.7988 107 203 119
-15.3265 26.9100 -1.7903 107 203 119
-15.3265 26.9100 -1.7817 107 203 119
-15.3265 26.9100 -1.7732 107 203 119
-15.3265 26.9100 -1.7647 107 203 119
-15.3265 26.9100 -1.7562 107 203 119
-15.3265 26.9100 -1.7476 107 203 119
-15.3265 26.9100 -1.7391 107 203 119
-15.3265 26.9100 -1.7306 107 203 119
-15.3265 26.9100 -1.7221 107 203 119
-15.3265 26.9100 -1.7135 107 203 119
-15.3265 26.9100 -1.7050 107 203 119
-15.3265 26.9100 -1.6965 107 203 119
-15.3265 26.9100 -1.6880 107 203 119
-15.3265 26.9100 -1.6794 107 203 119
-15.3265 26.9100 -1.6709 107 203 119
-15.3265 26.9100 -1.6624 107 203 119
-15.3265 26.9100 -1.6539 107 203 119
-15.3265 26.9100 -1.6453 107 203 119
-15.3265 26.9100 -1.6368 107 203 119
-15.3265 26.9100 -1.6283 107 203 119
-15.3265 26.9100 -1.6198 107 203 119
-15.3265 26.9100 -1.6112 107 203 119
-15.3265 26.9100 -1.6027 107 203 119
-15.3265 26.9100 -1.5942 107 203 119
-15.3265 26.9100 -1.5857 107 203 119
-15.3265 26.9100 -1.5771 107 203 119
-15.3265 26.9100 -1.5686 107 203 119
-15.3265 26.9100 -1.5601 107 203 119
-15.3265 26.9100 -1.5516 107 203 119
-15.3265 26.9100 -1.5430 107 203 119
-15.3265 26.9100 -1.5345 107 203 119
-15.3265 26.9100 -1.5260 107 203 119
-15.3265 26.9100 -1.5175 107 203 119
-15.3265 26.9100 -1.5089 107 203 119
-15.3265 26.9100 -1.5004 107 203 119
-15.3265 26.9100 -1.4919 107 203 119
-15.3265 26.9100 -1.4834 107 203 119
-15.3265 26.9100 -1.4748 107 203 119
-15.3265 26.9100 -1.4663 107 203 119
-15.3265 26.9100 -1.4578 107 203 119
-15.3265 26.9100 -1.4493 107 203 119
-15.3265 26.9100 -1.4407 107 203 119
-15.3265 26.9100 -1.4322 107 203 119
-15.3265 26.9100 -1.4237 107 203 119
-15.3265 26.9100 -1.4152 107 203 119
-15.3265 26.9100 -1.4066 107 203 119
-15.3265 26.9100 -1.3981 107 203 119
-15.3265 26.9100 -1.3896 107 203 119
-15.3265 26.9100 -1.3811 107 203 119
-15.3265 26.9100 -1.3725 107 203 119
-15.3265 26.9100 -1.3640 107 203 119
-15.3265 26.9100 -1.3555 107 203 119
-15.3265 26.9100 -1.3470 107 203 119
-15.3265 26.9100 -1.3384 107 203 119
-15.3265 26.9100 -1.3299 107 203 119
-15.3265 26.9100 -1.3214 107 203 119
-15.3265 26.9100 -1.3129 107 203 119
-15.3265 26.9100 -1.3043 107 203 119
-15.3265 26.9100 -1.2958 107 203 119
-15.3265 26.9100 -1.2873 107 203 119
-15.3265 26.9100 -1.2788 107 203 119
-15.3265 26.9100 -1.2702 107 203 119
-15.3265 26.9100 -1.2617 107 203 119
-15.3265 26.9100 -1.2532 107 203 119
-15.3265 26.9100 -1.2447 107 203 119
-15.3265 26.9100 -1.2361 107 203 119
-15.3265 26.9100 -1.2276 107 203 119
-15.3265 26.9100 -1.2191 107 203 119
-15.3265 26.9100 -1.2105 107 203 119
-15.3265 26.9100 -1.2020 107 203 119
-15.3265 26.9100 -1.1935 107 203 119
-15.3265 26.9100 -1.1850 107 203 119
-15.3265 26.9100 -1.1764 107 203 119
-15.3265 26.9100 -1.1679 107 203 119
-15.3265 26.9100 -1.1594 107 203 119
-15.3265 26.9100 -1.1509 107 203 119
-15.3265 26.9100 -1.1423 107 203 119
-15.3265 26.9100 -1.1338 107 203 119
-15.3265 26.9100 -1.1253 107 203 119
-15.3265 26.9100 -1.1168 107 203 119
-15.3265 26.9100 -1.1082 107 203 119
-15.3265 26.9100 -1.0997 107 203 119
-15.3265 26.9100 -1.0912 107 203 119
-15.3265 26.9100 -1.0827 107 203 119
-15.3265 26.9100 -1.0741 107 203 119
-15.3265 26.9100 -1.0656 107 203 119
-15.3265 26.9100 -1.0571 107 203 119
-15.3265 26.9100 -1.0486 107 203 119
-15.3265 26.9100 -1.0400 107 203 119
-15.3265 26.9100 -1.0315 107 203 119
-15.3265 26.9100 -1.0230 107 203 119
-15.3265 26.9100 -1.0145 107 203 119
-15.3265 26.9100 -1.0059 107 203 119
-15.3265 26.9100 -0.9974 107 203 119
-15.3265 26.9100 -0.9889 107 203 119
-15.3265 26.9100 -0.9804 107 203 119
-15.3265 26.9100 -0.9718 107 203 119
-15.3265 26.9100 -0.9633 107 203 119
-15.3265 26.9100 -0.9548 107 203 119
-15.3265 26.9100 -0.9463 107 203 119
-15.3265 26.9100 -0.9377 107 203 119
-15.3265 26.9100 -0.9292 107 203 119
-15.3265 26.9100 -0.9207 107 203 119
-15.3265 26.9100 -0.9122 107 203 119
-15.3265 26.9100 -0.9036 107 203 119
-15.3265 26.9100 -0.8951 107 203 119
-15.3265 26.9100 -0.8866 107 203 119
-15.3265 26.9100 -0.8781 107 203 119
-15.3265 26.9100 -0.8695 107 203 119
-15.3265 26.9100 -0.8610 107 203 119
-15.3265 26.9100 -0.8525 107 203 119
-15.3265 26.9100 -0.8440 107 203 119
-15.3265 26.9100 -0.8354 107 203 119
-15.3265 26.9100 -0.8269 107 203 119
-15.3265 26.9100 -0.8184 107 203 119
-15.3265 26.9100 -0.8099 107 203 119
-15.3265 26.9100 -0.8013 107 203 119
-15.3265 26.9100 -0.7928 107 203 119
-15.3265 26.9100 -0.7843 107 203 119
-15.3265 26.9100 -0.7758 107 203 119
-15.3265 26.9100 -0.7672 107 203 119
-15.3265 26.9100 -0.7587 107 203 119
-15.3265 26.9100 -0.7502 107 203 119
-15.3265 26.9100 -0.7417 107 203 119
-15.3265 26.9100 -0.7331 107 203 119
-15.3265 26.9100 -0.7246 107 203 119
-15.3265 26.9100 -0.7161 107 203 119
-15.3265 26.9100 -0.7076 107 203 119
-15.3265 26.9100 -0.6990 107 203 119
-15.3265 26.9100 -0.6905 107 203 119
-15.3265 26.9100 -0.6820 107 203 119
-15.3265 26.9100 -0.6735 107 203 119
-15.3265 26.9100 -0.6649 107 203 119
-15.3265 26.9100 -0.6564 107 203 119
-15.3265 26.9100 -0.6479 107 203 119
-15.3265 26.9100 -0.6394 107 203 119
-15.3265 26.9100 -0.6308 107 203 119
-15.3265 26.9100 -0.6223 107 203 119
-15.3265 26.9100 -0.6138 107 203 119
-15.3265 26.9100 -0.6053 107 203 119
-15.3265 26.9100 -0.5967 107 203 119
-15.3265 26.9100 -0.5882 107 203 119
-15.3265 26.9100 -0.5797 107 203 119
-15.3265 26.9100 -0.5712 107 203 119
-15.3265 26.9100 -0.5626 107 203 119
-15.3265 26.9100 -0.5541 107 203 119
-15.3265 26.9100 -0.5456 107 203 119
-15.3265 26.9100 -0.5371 107 203 119
-15.3265 26.9100 -0.5285 107 203 119
-15.3265 26.9100 -0.5200 107 203 119
-15.3265 26.9100 -0.5115 107 203 119
-15.3265 26.9100 -0.5030 107 203 119
-15.3265 26.9100 -0.4944 107 203 119
-15.3265 26.9100 -0.4859 107 203 119
-15.3265 26.9100 -0.4774 107 203 119
-15.3265 26.9100 -0.4689 107 203 119
-15.3265 26.9100 -0.4603 107 203 119
-15.3265 26.9100 -0.4518 107 203 119
-15.3265 26.9100 -0.4433 107 203 119
-15.3265 26.9100 -0.4348 107 203 119
-15.3265 26.9100 -0.4262 107 203 119
-15.3265 26.9100 -0.4177 107 203 119
-15.3265 26.9100 -0.4092 107 203 119
-15.3265 26.9100 -0.4007 107 203 119
-15.3265 26.9100 -0.3921 107 203 119
-15.3265 26.9100 -0.3836 107 203 119
-15.3265 26.9100 -0.3751 107 203 119
-15.3265 26.9100 -0.3666 107 203 119
-15.3265 26.9100 -0.3580 107 203 119
-15.3265 26.9100 -0.3495 107 203 119
-15.3265 26.9100 -0.3410 107 203 119
-15.3265 26.9100 -0.3324 107 203 119
-15.3265 26.9100 -0.3239 107 203 119
-15.3265 26.9100 -0.3154 107 203 119
-15.3265 26.9100 -0.3069 107 203 119
-15.3265 26.9100 -0.2983 107 203 119
-15.3265 26.9100 -0.2898 107 203 119
-15.3265 26.9100 -0.2813 107 203 119
-15.3265 26.9100 -0.2728 107 203 119
-15.3265 26.9100 -0.2642 107 203 119
-15.3265 26.9100 -0.2557 107 203 119
-15.3265 26.9100 -0.2472 107 203 119
-15.3265 26.9100 -0.2387 107 203 119
-15.3265 26.9100 -0.2301 107 203 119
-15.3265 26.9100 -0.2216 107 203 119
-15.3265 26.9100 -0.2131 107 203 119
-15.3265 26.9100 -0.2046 107 203 119
-15.3265 26.9100 -0.1960 107 203 119
-15.3265 26.9100 -0.1875 107 203 119
-15.3265 26.9100 -0.1790 107 203 119
-15.3265 26.9100 -0.1705 107 203 119
-15.3265 26.9100 -0.1619 107 203 119
-15.3265 26.9100 -0.1534 107 203 119
-15.3265 26.9100 -0.1449 107 203 119
-15.3265 26.9100 -0.1364 107 203 119
-15.3265 26.9100 -0.1278 107 203 119
-6.2291 30.4363 -1.7321 107 203 119
-6.2599 30.4390 -1.7321 107 203 119
-6.2907 30.4417 -1.7321 107 203 119
-6.3215 30.4443 -1.7321 107 203 119
-6.3523 30.4470 -1.7321 107 203 119
-6.3830 30.4497 -1.7321 107 203 119
-6.4138 30.4524 -1.7321 107 203 119
-6.4446 30.4550 -1.7321 107 203 119
-6.4754 30.4577 -1.7321 107 203 119
-6.5062 30.4604 -1.7321 107 203 119
-6.5370 30.4630 -1.7321 107 203 119
-6.5678 30.4657 -1.7321 107 203 119
-6.5985 30.4684 -1.7321 107 203 119
-6.6293 30.4710 -1.7321 107 203 119
-6.6601 30.4737 -1.7321 107 203 119
-6.6909 30.4764 -1.7321 107 203 119
-6.7217 30.4791 -1.7321 107 203 119
-6.7525 30.4817 -1.7321 107 203 119
-6.7833 30.4844 -1.7321 107 203 119
-6.8141 30.4871 -1.7321 107 203 119
-6.8448 30.4897 -1.7321 107 203 119
-6.8756 30.4924 -1.7321 107 203 119
-6.9064 30.4951 -1.7321 107 203 119
-6.9372 30.4977 -1.7321 107 203 119
-6.9680 30.5004 -1.7321 107 203 119
-6.9988 30.5031 -1.7321 107 203 119
-7.0296 30.5058 -1.7321 107 203 119
-7.0603 30.5084 -1.7321 107 203 119
-7.0911 30.5111 -1.7321 107 203 119
-7.1219 30.5138 -1.7321 107 203 119
-7.1527 30.5164 -1.7321 107 203 119
-7.1835 30.5191 -1.7321 107 203 119
-7.2143 30.5218 -1.7321 107 203 119
-7.2451 30.5244 -1.7321 107 203 119
-7.2759 30.5271 -1.7321 107 203 119
-7.3066 30.5298 -1.7321 107 203 119
-7.3374 30.5324 -1.7321 107 203 119
-7.3682 30.5351 -1.7321 107 203 119
-7.3990 30.5378 -1.7321 107 203 119
-7.4298 30.5405 -1.7321 107 203 119
-7.4606 30.5431 -1.7321 107 203 119
-7.4914 30.5458 -1.7321 107 203 119
-7.5221 30.5485 -1.7321 107 203 119
-7.5529 30.5511 -1.7321 107 203 119
-7.5837 30.5538 -1.7321 107 203 119
-7.6145 30.5565 -1.7321 107 203 119
-7.6453 30.5591 -1.7321 107 203 119
-7.6761 30.5618 -1.7321 107 203 119
-7.7069 30.5645 -1.7321 107 203 119
-7.7377 30.5672 -1.7321 107 203 119
-7.7684 30.5698 -1.7321 107 203 119
-7.7992 30.5725 -1.7321 107 203 119
-7.8300 30.5752 -1.7321 107 203 119
-7.8608 30.5778 -1.7321 107 203 119
-7.8916 30.5805 -1.7321 107 203 119
-7.9224 30.5832 -1.7321 107 203 119
-7.9532 30.5858 -1.7321 107 203 119
-7.9839 30.5885 -1.7321 107 203 119
-8.0147 30.5912 -1.7321 107 203 119
-8.0455 30.5939 -1.7321 107 203 119
-8.0763 30.5965 -1.7321 107 203 119
-8.1071 30.5992 -1.7321 107 203 119
-8.1379 30.6019 -1.7321 107 203 119
-8.1687 30.6045 -1.7321 107 203 119
-8.1994 30.6072 -1.7321 107 203 119
-8.2302 30.6099 -1.7321 107 203 119
-8.2610 30.6125 -1.7321 107 203 119
-8.2918 30.6152 -1.7321 107 203 119
-8.3226 30.6179 -1.7321 107 203 119
-8.3534 30.6206 -1.7321 107 203 119
-8.3842 30.6232 -1.7321 107 203 119
-8.4150 30.6259 -1.7321 107 203 119
-8.4457 30.6286 -1.7321 107 203 119
-8.4765 30.6312 -1.7321 107 203 119
-8.5073 30.6339 -1.7321 107 203 119
-8.5381 30.6366 -1.7321 107 203 119
-8.5689 30.6392 -1.7321 107 203 119
-8.5997 30.6419 -1.7321 107 203 119
-8.6305 30.6446 -1.7321 107 203 119
-8.6612 30.6473 -1.7321 107 203 119
-8.6920 30.6499 -1.7321 107 203 119
-8.7228 30.6526 -1.7321 107 203 119
-8.7536 30.6553 -1.7321 107 203 119
-8.7844 30.6579 -1.7321 107 203 119
-8.8152 30.6606 -1.7321 107 203 119
-8.8460 30.6633 -1.7321 107 203 119
-8.8768 30.6659 -1.7321 107 203 119
-8.9075 30.6686 -1.7321 107 203 119
-8.9383 30.6713 -1.7321 107 203 119
-8.9691 30.6740 -1.7321 107 203 119
-8.9999 30.6766 -1.7321 107 203 119
-9.0307 30.6793 -1.7321 107 203 119
-9.0615 30.6820 -1.7321 107 203 119
-9.0923 30.6846 -1.7321 107 203 119
-9.1230 30.6873 -1.7321 107 203 119
-9.1538 30.6900 -1.7321 107 203 119
-9.1846 30.6926 -1.7321 107 203 119
-9.2154 30.6953 -1.7321 107 203 119
-9.2462 30.6980 -1.7321 107 203 119
-9.2770 30.7006 -1.7321 107 203 119
-9.3078 30.7033 -1.7321 107 203 119
-9.3386 30.7060 -1.7321 107 203 119
-9.3693 30.7087 -1.7321 107 203 119
-9.4001 30.7113 -1.7321 107 203 119
-9.4309 30.7140 -1.7321 107 203 119
-9.4617 30.7167 -1.7321 107 203 119
-9.4925 30.7193 -1.7321 107 203 119
-9.5233 30.7220 -1.7321 107 203 119
-9.5541 30.7247 -1.7321 107 203 119
-9.5848 30.7273 -1.7321 107 203 119
-9.6156 30.7300 -1.7321 107 203 119
-9.6464 30.7327 -1.7321 107 203 119
-9.6772 30.7354 -1.7321 107 203 119
-9.7080 30.7380 -1.7321 107 203 119
-9.7388 30.7407 -1.7321 107 203 119
-9.7696 30.7434 -1.7321 107 203 119
-9.8004 30.7460 -1.7321 107 203 119
-9.8311 30.7487 -1.7321 107 203 119
-9.8619 30.7514 -1.7321 107 203 119
-9.8927 30.7540 -1.7321 107 203 119
-9.9235 30.7567 -1.7321 107 203 119
-9.9543 30.7594 -1.7321 107 203 119
-9.9851 30.7621 -1.7321 107 203 119
-10.0159 30.7647 -1.7321 107 203 119
-10.0466 30.7674 -1.7321 107 203 119
-10.0774 30.7701 -1.7321 107 203 119
-10.1082 30.7727 -1.7321 107 203 119
-10.1390 30.7754 -1.7321 107 203 119
-10.1698 30.7781 -1.7321 107 203 119
-10.2006 30.7807 -1.7321 107 203 119
-10.2314 30.7834 -1.7321 107 203 119
-10.2622 30.7861 -1.7321 107 203 119
-10.2929 30.7888 -1.7321 107 203 119
-10.3237 30.7914 -1.7321 107 203 119
-10.3545 30.7941 -1.7321 107 203 119
-10.3853 30.7968 -1.7321 107 203 119
-10.4161 30.7994 -1.7321 107 203 119
-10.4469 30.8021 -1.7321 107 203 119
-10.4777 30.8048 -1.7321 107 203 119
-10.5084 30.8074 -1.7321 107 203 119
-10.5392 30.8101 -1.7321 107 203 119
-10.5700 30.8128 -1.7321 107 203 119
-10.6008 30.8154 -1.7321 107 203 119
-10.6316 30.8181 -1.7321 107 203 119
-10.6624 30.8208 -1.7321 107 203 119
-10.6932 30.8235 -1.7321 107 203 119
-10.7240 30.8261 -1.7321 107 203 119
-10.7547 30.8288 -1.7321 107 203 119
-10.7855 30.8315 -1.7321 107 203 119
-10.8163 30.8341 -1.7321 107 203 119
-10.8471 30.8368 -1.7321 107 203 119
-10.8779 30.8395 -1.7321 107 203 119
-10.9087 30.8421 -1.7321 107 203 119
-10.9395 30.8448 -1.7321 107 203 119
-10.9702 30.8475 -1.7321 107 203 119
-11.0010 30.8502 -1.7321 107 203 119
-11.0318 30.8528 -1.7321 107 203 119
-11.0626 30.8555 -1.7321 107 203 119
-11.0934 30.8582 -1.7321 107 203 119
-11.1242 30.8608 -1.7321 107 203 119
-11.1550 30.8635 -1.7321 107 203 119
-11.1858 30.8662 -1.7321 107 203 119
-11.2165 30.8688 -1.7321 107 203 119
-11.2473 30.8715 -1.7321 107 203 119
-11.2781 30.8742 -1.7321 107 203 119
-11.3089 30.8769 -1.7321 107 203 119
-11.3397 30.8795 -1.7321 107 203 119
-11.3705 30.8822 -1.7321 107 203 119
-11.4013 30.8849 -1.7321 107 203 119
-11.4320 30.8875 -1.7321 107 203 119
-11.4628 30.8902 -1.7321 107 203 119
-11.4936 30.8929 -1.7321 107 203 119
-11.5244 30.8955 -1.7321 107 203 119
-11.5552 30.8982 -1.7321 107 203 119
-11.5860 30.9009 -1.7321 107 203 119
-11.6168 30.9036 -1.7321 107 203 119
-11.6475 30.9062 -1.7321 107 203 119
-11.6783 30.9089 -1.7321 107 203 119
-11.7091 30.9116 -1.7321 107 203 119
-11.7399 30.9142 -1.7321 107 203 119
-11.7707 30.9169 -1.7321 107 203 119
-11.8015 30.9196 -1.7321 107 203 119
-11.8323 30.9222 -1.7321 107 203 119
-11.8631 30.9249 -1.7321 107 203 119
-11.8938 30.9276 -1.7321 107 203 119
-11.9246 30.9303 -1.7321 107 203 119
-11.9554 30.9329 -1.7321 107 203 119
-11.9862 30.9356 -1.7321 107 203 119
-12.0170 30.9383 -1.7321 107 203 119
-12.0478 30.9409 -1.7321 107 203 119
-12.0786 30.9436 -1.7321 107 203 119
-12.1093 30.9463 -1.7321 107 203 119
-12.1401 30.9489 -1.7321 107 203 119
-12.1709 30.9516 -1.7321 107 203 119
-12.2017 30.9543 -1.7321 107 203 119
-12.2325 30.9569 -1.7321 107 203 119
-12.2633 30.9596 -1.7321 107 203 119
-12.2941 30.9623 -1.7321 107 203 119
-12.3249 30.9650 -1.7321 107 203 119
-12.3556 30.9676 -1.7321 107 203 119
-12.3556 30.9676 -1.7321 107 203 119
-12.3567 30.9552 -1.7321 107 203 119
-12.3578 30.9428 -1.7321 107 203 119
-12.3589 30.9303 -1.7321 107 203 119
-12.3600 30.9179 -1.7321 107 203 119
-12.3610 30.9055 -1.7321 107 203 119
-12.3621 30.8930 -1.7321 107 203 119
-12.3632 30.8806 -1.7321 107 203 119
-12.3643 30.8682 -1.7321 107 203 119
-12.3653 30.8557 -1.7321 107 203 119
-12.3664 30.8433 -1.7321 107 203 119
-12.3675 30.8309 -1.7321 107 203 119
-12.3686 30.8184 -1.7321 107 203 119
-12.3697 30.8060 -1.7321 107 203 119
-12.3707 30.7936 -1.7321 107 203 119
-12.3718 30.7811 -1.7321 107 203 119
-12.3729 30.7687 -1.7321 107 203 119
-12.3740 30.7563 -1.7321 107 203 119
-12.3750 30.7438 -1.7321 107 203 119
-12.3761 30.7314 -1.7321 107 203 119
-12.3772 30.7190 -1.7321 107 203 119
-12.3783 30.7065 -1.7321 107 203 119
-12.3794 30.6941 -1.7321 107 203 119
-12.3804 30.6817 -1.7321 107 203 119
-12.3815 30.6693 -1.7321 107 203 119
-12.3826 30.6568 -1.7321 107 203 119
-12.3837 30.6444 -1.7321 107 203 119
-12.3848 30.6320 -1.7321 107 203 119
-12.3858 30.6195 -1.7321 107 203 119
-12.3869 30.6071 -1.7321 107 203 119
-12.3880 30.5947 -1.7321 107 203 119
-12.3891 30.5822 -1.7321 107 203 119
-12.3901 30.5698 -1.7321 107 203 119
-12.3912 30.5574 -1.7321 107 203 119
-12.3923 30.5449 -1.7321 107 203 119
-12.3934 30.5325 -1.7321 107 203 119
-12.3945 30.5201 -1.7321 107 203 119
-12.3955 30.5076 -1.7321 107 203 119
-12.3966 30.4952 -1.7321 107 203 119
-12.3977 30.4828 -1.7321 107 203 119
-12.3988 30.4703 -1.7321 107 203 119
-12.3998 30.4579 -1.7321 107 203 119
-12.4009 30.4455 -1.7321 107 203 119
-12.4020 30.4330 -1.7321 107 203 119
-12.4031 30.4206 -1.7321 107 203 119
-12.4042 30.4082 -1.7321 107 203 119
-12.4052 30.3957 -1.7321 107 203 119
-12.4063 30.3833 -1.7321 107 203 119
-12.4074 30.3709 -1.7321 107 203 119
-12.4085 30.3584 -1.7321 107 203 119
-12.4095 30.3460 -1.7321 107 203 119
-12.4106 30.3336 -1.7321 107 203 119
-12.4117 30.3211 -1.7321 107 203 119
-12.4128 30.3087 -1.7321 107 203 119
-12.4139 30.2963 -1.7321 107 203 119
-12.4149 30.2838 -1.7321 107 203 119
-12.4160 30.2714 -1.7321 107 203 119
-12.4171 30.2590 -1.7321 107 203 119
-12.4182 30.2466 -1.7321 107 203 119
-12.4193 30.2341 -1.7321 107 203 119
-12.4203 30.2217 -1.7321 107 203 119
-12.4214 30.2093 -1.7321 107 203 119
-12.4225 30.1968 -1.7321 107 203 119
-12.4236 30.1844 -1.7321 107 203 119
-12.4246 30.1720 -1.7321 107 203 119
-12.4257 30.1595 -1.7321 107 203 119
-12.4268 30.1471 -1.7321 107 203 119
-12.4279 30.1347 -1.7321 107 203 119
-12.4290 30.1222 -1.7321 107 203 119
-12.4300 30.1098 -1.7321 107 203 119
-12.4311 30.0974 -1.7321 107 203 119
-12.4322 30.0849 -1.7321 107 203 119
-12.4333 30.0725 -1.7321 107 203 119
-12.4343 30.0601 -1.7321 107 203 119
-12.4354 30.0476 -1.7321 107 203 119
-12.4365 30.0352 -1.7321 107 203 119
-12.4376 30.0228 -1.7321 107 203 119
-12.4387 30.0103 -1.7321 107 203 119
-12.4397 29.9979 -1.7321 107 203 119
-12.4408 29.9855 -1.7321 107 203 119
-12.4419 29.9730 -1.7321 107 203 119
-12.4430 29.9606 -1.7321 107 203 119
-12.4440 29.9482 -1.7321 107 203 119
-12.4451 29.9357 -1.7321 107 203 119
-12.4462 29.9233 -1.7321 107 203 119
-12.4473 29.9109 -1.7321 107 203 119
-12.4484 29.8984 -1.7321 107 203 119
-12.4494 29.8860 -1.7321 107 203 119
-12.4505 29.8736 -1.7321 107 203 119
-12.4516 29.8612 -1.7321 107 203 119
-12.4527 29.8487 -1.7321 107 203 119
-12.4538 29.8363 -1.7321 107 203 119
-12.4548 29.8239 -1.7321 107 203 119
-12.4559 29.8114 -1.7321 107 203 119
-12.4570 29.7990 -1.7321 107 203 119
-12.4581 29.7866 -1.7321 107 203 119
-12.4591 29.7741 -1.7321 107 203 119
-12.4602 29.7617 -1.7321 107 203 119
-12.4613 29.7493 -1.7321 107 203 119
-12.4624 29.7368 -1.7321 107 203 119
-12.4635 29.7244 -1.7321 107 203 119
-12.4645 29.7120 -1.7321 107 203 119
-12.4656 29.6995 -1.7321 107 203 119
-12.4667 29.6871 -1.7321 107 203 119
-12.4678 29.6747 -1.7321 107 203 119
-12.4688 29.6622 -1.7321 107 203 119
-12.4699 29.6498 -1.7321 107 203 119
-12.4710 29.6374 -1.7321 107 203 119
-12.4721 29.6249 -1.7321 107 203 119
-12.4732 29.6125 -1.7321 107 203 119
-12.4742 29.6001 -1.7321 107 203 119
-12.4753 29.5876 -1.7321 107 203 119
-12.4764 29.5752 -1.7321 107 203 119
-12.4775 29.5628 -1.7321 107 203 119
-12.4785 29.5503 -1.7321 107 203 119
-12.4796 29.5379 -1.7321 107 203 119
-12.4807 29.5255 -1.7321 107 203 119
-12.4818 29.5130 -1.7321 107 203 119
-12.4829 29.5006 -1.7321 107 203 119
-12.4839 29.4882 -1.7321 107 203 119
-12.4850 29.4757 -1.7321 107 203 119
-12.4861 29.4633 -1.7321 107 203 119
-12.4872 29.4509 -1.7321 107 203 119
-12.4883 29.4385 -1.7321 107 203 119
-12.4893 29.4260 -1.7321 107 203 119
-12.4904 29.4136 -1.7321 107 203 119
-12.4915 29.4012 -1.7321 107 203 119
-12.4926 29.3887 -1.7321 107 203 119
-12.4936 29.3763 -1.7321 107 203 119
-12.4947 29.3639 -1.7321 107 203 119
-12.4958 29.3514 -1.7321 107 203 119
-12.4969 29.3390 -1.7321 107 203 119
-12.4980 29.3266 -1.7321 107 203 119
-12.4990 29.3141 -1.7321 107 203 119
-12.5001 29.3017 -1.7321 107 203 119
-12.5012 29.2893 -1.7321 107 203 119
-12.5023 29.2768 -1.7321 107 203 119
-12.5033 29.2644 -1.7321 107 203 119
-12.5044 29.2520 -1.7321 107 203 119
-12.5055 29.2395 -1.7321 107 203 119
-12.5066 29.2271 -1.7321 107 203 119
-12.5077 29.2147 -1.7321 107 203 119
-12.5087 29.2022 -1.7321 107 203 119
-12.5098 29.1898 -1.7321 107 203 119
-12.5109 29.1774 -1.7321 107 203 119
-12.5120 29.1649 -1.7321 107 203 119
-12.5130 29.1525 -1.7321 107 203 119
-12.5141 29.1401 -1.7321 107 203 119
-12.5152 29.1276 -1.7321 107 203 119
-12.5163 29.1152 -1.7321 107 203 119
-12.5174 29.1028 -1.7321 107 203 119
-12.5184 29.0903 -1.7321 107 203 119
-12.5195 29.0779 -1.7321 107 203 119
-12.5206 29.0655 -1.7321 107 203 119
-12.5217 29.0531 -1.7321 107 203 119
-12.5228 29.0406 -1.7321 107 203 119
-12.5238 29.0282 -1.7321 107 203 119
-12.5249 29.0158 -1.7321 107 203 119
-12.5260 29.0033 -1.7321 107 203 119
-12.5271 28.9909 -1.7321 107 203 119
-12.5281 28.9785 -1.7321 107 203 119
-12.5292 28.9660 -1.7321 107 203 119
-12.5303 28.9536 -1.7321 107 203 119
-12.5314 28.9412 -1.7321 107 203 119
-12.5325 28.9287 -1.7321 107 203 119
-12.5335 28.9163 -1.7321 107 203 119
-12.5346 28.9039 -1.7321 107 203 119
-12.5357 28.8914 -1.7321 107 203 119
-12.5368 28.8790 -1.7321 107 203 119
-12.5378 28.8666 -1.7321 107 203 119
-12.5389 28.8541 -1.7321 107 203 119
-12.5400 28.8417 -1.7321 107 203 119
-12.5411 28.8293 -1.7321 107 203 119
-12.5422 28.8168 -1.7321 107 203 119
-12.5432 28.8044 -1.7321 107 203 119
-12.5443 28.7920 -1.7321 107 203 119
-12.5454 28.7795 -1.7321 107 203 119
-12.5465 28.7671 -1.7321 107 203 119
-12.5475 28.7547 -1.7321 107 203 119
-12.5486 28.7422 -1.7321 107 203 119
-12.5497 28.7298 -1.7321 107 203 119
-12.5508 28.7174 -1.7321 107 203 119
-12.5519 28.7049 -1.7321 107 203 119
-12.5529 28.6925 -1.7321 107 203 119
-12.5540 28.6801 -1.7321 107 203 119
-12.5551 28.6677 -1.7321 107 203 119
-12.5562 28.6552 -1.7321 107 203 119
-12.5573 28.6428 -1.7321 107 203 119
-12.5583 28.6304 -1.7321 107 203 119
-12.5594 28.6179 -1.7321 107 203 119
-12.5605 28.6055 -1.7321 107 203 119
-12.5616 28.5931 -1.7321 107 203 119
-12.5626 28.5806 -1.7321 107 203 119
-12.5637 28.5682 -1.7321 107 203 119
-12.5648 28.5558 -1.7321 107 203 119
-12.5659 28.5433 -1.7321 107 203 119
-12.5670 28.5309 -1.7321 107 203 119
-12.5680 28.5185 -1.7321 107 203 119
-12.5691 28.5060 -1.7321 107 203 119
-12.5702 28.4936 -1.7321 107 203 119
-12.5702 28.4936 -1.7321 107 203 119
-12.5394 28.4909 -1.7321 107 203 119
-12.5086 28.4883 -1.7321 107 203 119
-12.4778 28.4856 -1.7321 107 203 119
-12.4470 28.4829 -1.7321 107 203 119
-12.4163 28.4802 -1.7321 107 203 119
-12.3855 28.4776 -1.7321 107 203 119
-12.3547 28.4749 -1.7321 107 203 119
-12.3239 28.4722 -1.7321 107 203 119
-12.2931 28.4696 -1.7321 107 203 119
-12.2623 28.4669 -1.7321 107 203 119
-12.2315 28.4642 -1.7321 107 203 119
-12.2007 28.4616 -1.7321 107 203 119
-12.1700 28.4589 -1.7321 107 203 119
-12.1392 28.4562 -1.7321 107 203 119
-12.1084 28.4536 -1.7321 107 203 119
-12.0776 28.4509 -1.7321 107 203 119
-12.0468 28.4482 -1.7321 107 203 119
-12.0160 28.4455 -1.7321 107 203 119
-11.9852 28.4429 -1.7321 107 203 119
-11.9545 28.4402 -1.7321 107 203 119
-11.9237 28.4375 -1.7321 107 203 119
-11.8929 28.4349 -1.7321 107 203 119
-11.8621 28.4322 -1.7321 107 203 119
-11.8313 28.4295 -1.7321 107 203 119
-11.8005 28.4269 -1.7321 107 203 119
-11.7697 28.4242 -1.7321 107 203 119
-11.7389 28.4215 -1.7321 107 203 119
-11.7082 28.4188 -1.7321 107 203 119
-11.6774 28.4162 -1.7321 107 203 119
-11.6466 28.4135 -1.7321 107 203 119
-11.6158 28.4108 -1.7321 107 203 119
-11.5850 28.4082 -1.7321 107 203 119
-11.5542 28.4055 -1.7321 107 203 119
-11.5234 28.4028 -1.7321 107 203 119
-11.4927 28.4002 -1.7321 107 203 119
-11.4619 28.3975 -1.7321 107 203 119
-11.4311 28.3948 -1.7321 107 203 119
-11.4003 28.3921 -1.7321 107 203 119
-11.3695 28.3895 -1.7321 107 203 119
-11.3387 28.3868 -1.7321 107 203 119
-11.3079 28.3841 -1.7321 107 203 119
-11.2772 28.3815 -1.7321 107 203 119
-11.2464 28.3788 -1.7321 107 203 119
-11.2156 28.3761 -1.7321 107 203 119
-11.1848 28.3735 -1.7321 107 203 119
-11.1540 28.3708 -1.7321 107 203 119
-11.1232 28.3681 -1.7321 107 203 119
-11.0924 28.3654 -1.7321 107 203 119
-11.0616 28.3628 -1.7321 107 203 119
-11.0309 28.3601 -1.7321 107 203 119
-11.0001 28.3574 -1.7321 107 203 119
-10.9693 28.3548 -1.7321 107 203 119
-10.9385 28.3521 -1.7321 107 203 119
-10.9077 28.3494 -1.7321 107 203 119
-10.8769 28.3468 -1.7321 107 203 119
-10.8461 28.3441 -1.7321 107 203 119
-10.8154 28.3414 -1.7321 107 203 119
-10.7846 28.3387 -1.7321 107 203 119
-10.7538 28.3361 -1.7321 107 203 119
-10.7230 28.3334 -1.7321 107 203 119
-10.6922 28.3307 -1.7321 107 203 119
-10.6614 28.3281 -1.7321 107 203 119
-10.6306 28.3254 -1.7321 107 203 119
-10.5998 28.3227 -1.7321 107 203 119
-10.5691 28.3201 -1.7321 107 203 119
-10.5383 28.3174 -1.7321 107 203 119
-10.5075 28.3147 -1.7321 107 203 119
-10.4767 28.3121 -1.7321 107 203 119
-10.4459 28.3094 -1.7321 107 203 119
-10.4151 28.3067 -1.7321 107 203 119
-10.3843 28.3040 -1.7321 107 203 119
-10.3536 28.3014 -1.7321 107 203 119
-10.3228 28.2987 -1.7321 107 203 119
-10.2920 28.2960 -1.7321 107 203 119
-10.2612 28.2934 -1.7321 107 203 119
-10.2304 28.2907 -1.7321 107 203 119
-10.1996 28.2880 -1.7321 107 203 119
-10.1688 28.2854 -1.7321 107 203 119
-10.1380 28.2827 -1.7321 107 203 119
-10.1073 28.2800 -1.7321 107 203 119
-10.0765 28.2773 -1.7321 107 203 119
-10.0457 28.2747 -1.7321 107 203 119
-10.0149 28.2720 -1.7321 107 203 119
-9.9841 28.2693 -1.7321 107 203 119
-9.9533 28.2667 -1.7321 107 203 119
-9.9225 28.2640 -1.7321 107 203 119
-9.8918 28.2613 -1.7321 107 203 119
-9.8610 28.2587 -1.7321 107 203 119
-9.8302 28.2560 -1.7321 107 203 119
-9.7994 28.2533 -1.7321 107 203 119
-9.7686 28.2506 -1.7321 107 203 119
-9.7378 28.2480 -1.7321 107 203 119
-9.7070 28.2453 -1.7321 107 203 119
-9.6762 28.2426 -1.7321 107 203 119
-9.6455 28.2400 -1.7321 107 203 119
-9.6147 28.2373 -1.7321 107 203 119
-9.5839 28.2346 -1.7321 107 203 119
-9.5531 28.2320 -1.7321 107 203 119
-9.5223 28.2293 -1.7321 107 203 119
-9.4915 28.2266 -1.7321 107 203 119
-9.4607 28.2239 -1.7321 107 203 119
-9.4300 28.2213 -1.7321 107 203 119
-9.3992 28.2186 -1.7321 107 203 119
-9.3684 28.2159 -1.7321 107 203 119
-9.3376 28.2133 -1.7321 107 203 119
-9.3068 28.2106 -1.7321 107 203 119
-9.2760 28.2079 -1.7321 107 203 119
-9.2452 28.2053 -1.7321 107 203 119
-9.2144 28.2026 -1.7321 107 203 119
-9.1837 28.1999 -1.7321 107 203 119
-9.1529 28.1973 -1.7321 107 203 119
-9.1221 28.1946 -1.7321 107 203 119
-9.0913 28.1919 -1.7321 107 203 119
