ply
format ascii 1.0
element vertex 1357
property float x
property float y
property float z
property uchar red
property uchar green
property uchar blue
end_header
3.1222 -0.4861 -1.8661 160 160 160
3.1350 -0.4887 -1.7755 160 160 160
3.1451 -0.4904 -1.6859 160 160 160
3.3341 -0.5137 -1.6878 160 160 160
3.5497 -0.5397 -1.6943 160 160 160
3.7454 -0.5640 -1.6818 160 160 160
3.9900 -0.5943 -1.6811 160 160 160
4.2571 -0.6266 -1.6770 160 160 160
4.5650 -0.6647 -1.6764 160 160 160
4.9408 -0.7103 -1.6847 160 160 160
5.4029 -0.7672 -1.7015 160 160 160
5.7534 -0.8111 -1.6654 160 160 160
6.9100 -0.9508 -1.8261 160 160 160
7.5857 -1.0345 -1.8148 160 160 160
8.4313 -1.1377 -1.8099 160 160 160
9.5005 -1.2698 -1.8082 160 160 160
10.9792 -1.4038 -1.8217 160 160 160
13.0715 -1.6504 -1.8559 160 160 160
18.1592 -2.2516 -2.1426 160 160 160
28.2415 -3.4439 -2.6634 160 160 160
21.6015 -2.6667 -1.5297 160 160 160
0.0043 -0.1227 -0.0035 160 160 160
21.6374 -2.6824 -0.5148 160 160 160
21.6881 -2.6961 -0.0091 160 160 160
21.7014 -2.7053 0.4982 160 160 160
0.0043 -0.1227 -0.0035 160 160 160
0.0043 -0.1227 -0.0035 160 160 160
0.0043 -0.1227 -0.0035 160 160 160
22.4536 -2.8187 2.6348 160 160 160
0.0043 -0.1227 -0.0035 160 160 160
0.0043 -0.1227 -0.0035 160 160 160
0.0043 -0.1227 -0.0035 160 160 160
3.1252 -0.5038 -1.8692 160 160 160
3.1329 -0.5059 -1.7755 160 160 160
3.1518 -0.5088 -1.6906 160 160 160
3.3336 -0.5323 -1.6887 160 160 160
3.5472 -0.5598 -1.6943 160 160 160
3.7447 -0.5848 -1.6826 160 160 160
3.9781 -0.6151 -1.6772 160 160 160
4.2486 -0.6502 -1.6748 160 160 160
4.5600 -0.6897 -1.6757 160 160 160
4.9242 -0.7368 -1.6802 160 160 160
5.3954 -0.7975 -1.7003 160 160 160
5.7552 -0.8436 -1.6670 160 160 160
6.9032 -0.9900 -1.8256 160 160 160
7.5844 -1.0770 -1.8158 160 160 160
8.4175 -1.1849 -1.8082 160 160 160
9.5171 -1.3272 -1.8126 160 160 160
10.9816 -1.4659 -1.8233 160 160 160
13.0687 -1.7237 -1.8567 160 160 160
18.2338 -2.3632 -2.1528 160 160 160
28.4419 -3.6281 -2.6840 160 160 160
0.0043 -0.1224 -0.0034 160 160 160
0.0043 -0.1224 -0.0034 160 160 160
0.0043 -0.1224 -0.0034 160 160 160
21.6774 -2.8172 -0.0090 160 160 160
21.6965 -2.8273 0.4985 160 160 160
0.0043 -0.1224 -0.0034 160 160 160
0.0043 -0.1224 -0.0034 160 160 160
0.0043 -0.1224 -0.0034 160 160 160
0.0043 -0.1224 -0.0034 160 160 160
22.5001 -2.9594 3.1773 160 160 160
0.0043 -0.1224 -0.0034 160 160 160
22.5178 -2.9776 4.2663 160 160 160
3.1161 -0.5207 -1.8651 160 160 160
3.1254 -0.5230 -1.7726 160 160 160
3.1512 -0.5269 -1.6915 160 160 160
3.3383 -0.5521 -1.6923 160 160 160
3.5410 -0.5795 -1.6926 160 160 160
3.7491 -0.6077 -1.6859 160 160 160
3.9880 -0.6394 -1.6826 160 160 160
4.2474 -0.6746 -1.6756 160 160 160
4.5603 -0.7169 -1.6771 160 160 160
4.9225 -0.7651 -1.6808 160 160 160
5.3933 -0.8285 -1.7009 160 160 160
5.7489 -0.8772 -1.6665 160 160 160
6.9057 -1.0304 -1.8276 160 160 160
7.5786 -1.1217 -1.8157 160 160 160
8.4169 -1.2353 -1.8094 160 160 160
9.5156 -1.3841 -1.8137 160 160 160
10.9816 -1.5298 -1.8246 160 160 160
13.0590 -1.8008 -1.8567 160 160 160
18.3033 -2.4784 -2.1625 160 160 160
28.7116 -3.8288 -2.7114 160 160 160
0.0043 -0.1222 -0.0034 160 160 160
0.0043 -0.1222 -0.0034 160 160 160
0.0043 -0.1222 -0.0034 160 160 160
21.6531 -2.9443 -0.0090 160 160 160
21.6786 -2.9515 0.4985 160 160 160
0.0043 -0.1222 -0.0034 160 160 160
0.0043 -0.1222 -0.0034 160 160 160
0.0043 -0.1222 -0.0034 160 160 160
0.0043 -0.1222 -0.0034 160 160 160
0.0043 -0.1222 -0.0034 160 160 160
22.5180 -3.1050 3.7218 160 160 160
0.0043 -0.1222 -0.0034 160 160 160
3.1154 -0.5391 -1.8661 160 160 160
3.1316 -0.5424 -1.7775 160 160 160
3.1470 -0.5450 -1.6906 160 160 160
3.3251 -0.5702 -1.6869 160 160 160
3.5419 -0.6001 -1.6943 160 160 160
3.7480 -0.6293 -1.6867 160 160 160
3.9794 -0.6620 -1.6803 160 160 160
4.2478 -0.6992 -1.6770 160 160 160
4.5549 -0.7426 -1.6764 160 160 160
4.9149 -0.7926 -1.6795 160 160 160
5.3891 -0.8593 -1.7009 160 160 160
5.7464 -0.9102 -1.6670 160 160 160
6.9100 -1.0712 -1.8301 160 160 160
7.5747 -1.1653 -1.8162 160 160 160
8.4222 -1.2836 -1.8119 160 160 160
9.5279 -1.4395 -1.8174 160 160 160
10.9867 -1.5964 -1.8269 160 160 160
13.0452 -1.8751 -1.8561 160 160 160
18.3697 -2.5975 -2.1721 160 160 160
28.8924 -4.0261 -2.7306 160 160 160
0.0043 -0.1220 -0.0034 160 160 160
0.0043 -0.1220 -0.0034 160 160 160
0.0043 -0.1220 -0.0034 160 160 160
0.0043 -0.1220 -0.0034 160 160 160
0.0043 -0.1220 -0.0034 160 160 160
0.0043 -0.1220 -0.0034 160 160 160
0.0043 -0.1220 -0.0034 160 160 160
0.0043 -0.1220 -0.0034 160 160 160
0.0043 -0.1220 -0.0034 160 160 160
0.0043 -0.1220 -0.0034 160 160 160
0.0043 -0.1220 -0.0034 160 160 160
0.0043 -0.1220 -0.0034 160 160 160
3.1130 -0.5562 -1.8661 160 160 160
3.1241 -0.5589 -1.7745 160 160 160
3.1446 -0.5623 -1.6906 160 160 160
3.3349 -0.5902 -1.6932 160 160 160
3.5427 -0.6207 -1.6960 160 160 160
3.7378 -0.6495 -1.6834 160 160 160
3.9818 -0.6847 -1.6826 160 160 160
4.2592 -0.7255 -1.6828 160 160 160
4.5438 -0.7675 -1.6737 160 160 160
4.9241 -0.8225 -1.6840 160 160 160
5.3867 -0.8903 -1.7015 160 160 160
5.7322 -0.9417 -1.6642 160 160 160
6.9063 -1.1109 -1.8306 160 160 160
7.5839 -1.2108 -1.8199 160 160 160
8.4171 -1.3335 -1.8123 160 160 160
9.5258 -1.4965 -1.8185 160 160 160
10.9939 -1.6596 -1.8295 160 160 160
13.0329 -1.9496 -1.8558 160 160 160
18.4343 -2.7106 -2.1813 160 160 160
29.0535 -4.2127 -2.7479 160 160 160
0.0043 -0.1217 -0.0034 160 160 160
0.0043 -0.1217 -0.0034 160 160 160
0.0043 -0.1217 -0.0034 160 160 160
0.0043 -0.1217 -0.0034 160 160 160
0.0043 -0.1217 -0.0034 160 160 160
0.0043 -0.1217 -0.0034 160 160 160
0.0043 -0.1217 -0.0034 160 160 160
0.0043 -0.1217 -0.0034 160 160 160
0.0043 -0.1217 -0.0034 160 160 160
0.0043 -0.1217 -0.0034 160 160 160
0.0043 -0.1217 -0.0034 160 160 160
0.0043 -0.1217 -0.0034 160 160 160
3.1121 -0.5746 -1.8671 160 160 160
3.1335 -0.5789 -1.7814 160 160 160
0.0042 -0.1215 -0.0034 160 160 160
3.3285 -0.6092 -1.6914 160 160 160
3.5397 -0.6414 -1.6960 160 160 160
3.7238 -0.6698 -1.6785 160 160 160
3.9857 -0.7091 -1.6857 160 160 160
4.2573 -0.7507 -1.6835 160 160 160
4.5474 -0.7953 -1.6764 160 160 160
4.9180 -0.8511 -1.6834 160 160 160
5.3782 -0.9214 -1.7003 160 160 160
5.7254 -0.9751 -1.6637 160 160 160
6.9080 -1.1527 -1.8327 160 160 160
7.5754 -1.2551 -1.8194 160 160 160
8.4059 -1.3825 -1.8115 160 160 160
9.5291 -1.5544 -1.8207 160 160 160
10.9924 -1.7256 -1.8307 160 160 160
13.0375 -2.0288 -1.8580 160 160 160
18.5267 -2.8354 -2.1941 160 160 160
29.2514 -4.4172 -2.7689 160 160 160
0.0042 -0.1215 -0.0034 160 160 160
0.0042 -0.1215 -0.0034 160 160 160
0.0042 -0.1215 -0.0034 160 160 160
0.0042 -0.1215 -0.0034 160 160 160
0.0042 -0.1215 -0.0034 160 160 160
0.0042 -0.1215 -0.0034 160 160 160
0.0042 -0.1215 -0.0034 160 160 160
0.0042 -0.1215 -0.0034 160 160 160
0.0042 -0.1215 -0.0034 160 160 160
0.0042 -0.1215 -0.0034 160 160 160
0.0042 -0.1215 -0.0034 160 160 160
0.0042 -0.1215 -0.0034 160 160 160
3.1094 -0.5923 -1.8671 160 160 160
3.1274 -0.5961 -1.7794 160 160 160
3.1358 -0.5979 -1.6887 160 160 160
3.3203 -0.6272 -1.6887 160 160 160
3.5366 -0.6615 -1.6960 160 160 160
3.7315 -0.6919 -1.6834 160 160 160
3.9804 -0.7315 -1.6849 160 160 160
4.2573 -0.7755 -1.6850 160 160 160
4.5491 -0.8212 -1.6784 160 160 160
4.9119 -0.8788 -1.6827 160 160 160
5.3792 -0.9529 -1.7021 160 160 160
5.7072 -1.0047 -1.6598 160 160 160
6.9076 -1.1931 -1.8342 160 160 160
7.5670 -1.2968 -1.8189 160 160 160
8.4064 -1.4303 -1.8132 160 160 160
9.5346 -1.6094 -1.8233 160 160 160
10.9967 -1.7906 -1.8330 160 160 160
13.0365 -2.1027 -1.8594 160 160 160
18.5972 -2.9548 -2.2043 160 160 160
29.5845 -4.6398 -2.8028 160 160 160
0.0043 -0.1212 -0.0034 160 160 160
0.0043 -0.1212 -0.0034 160 160 160
0.0043 -0.1212 -0.0034 160 160 160
0.0043 -0.1212 -0.0034 160 160 160
0.0043 -0.1212 -0.0034 160 160 160
0.0043 -0.1212 -0.0034 160 160 160
0.0043 -0.1212 -0.0034 160 160 160
0.0043 -0.1212 -0.0034 160 160 160
0.0043 -0.1212 -0.0034 160 160 160
0.0043 -0.1212 -0.0034 160 160 160
0.0043 -0.1212 -0.0034 160 160 160
0.0043 -0.1212 -0.0034 160 160 160
3.1117 -0.6107 -1.8701 160 160 160
3.1349 -0.6155 -1.7853 160 160 160
3.1364 -0.6163 -1.6906 160 160 160
3.3209 -0.6466 -1.6905 160 160 160
3.5424 -0.6830 -1.7002 160 160 160
3.7372 -0.7146 -1.6874 160 160 160
3.9677 -0.7527 -1.6810 160 160 160
4.2608 -0.8009 -1.6879 160 160 160
4.5431 -0.8468 -1.6777 160 160 160
4.9037 -0.9062 -1.6814 160 160 160
5.3724 -0.9832 -1.7015 160 160 160
5.7153 -1.0393 -1.6637 160 160 160
6.8994 -1.2322 -1.8336 160 160 160
7.5717 -1.3419 -1.8217 160 160 160
8.4104 -1.4802 -1.8156 160 160 160
9.5317 -1.6649 -1.8244 160 160 160
11.0025 -1.8560 -1.8356 160 160 160
13.0307 -2.1783 -1.8603 160 160 160
18.6866 -3.0782 -2.2169 160 160 160
29.9140 -4.8660 -2.8365 160 160 160
0.0042 -0.1210 -0.0034 160 160 160
0.0042 -0.1210 -0.0034 160 160 160
0.0042 -0.1210 -0.0034 160 160 160
94.0483 -15.1415 -0.0275 160 160 160
0.0042 -0.1210 -0.0034 160 160 160
0.0042 -0.1210 -0.0034 160 160 160
0.0042 -0.1210 -0.0034 160 160 160
0.0042 -0.1210 -0.0034 160 160 160
0.0042 -0.1210 -0.0034 160 160 160
0.0042 -0.1210 -0.0034 160 160 160
0.0042 -0.1210 -0.0034 160 160 160
0.0042 -0.1210 -0.0034 160 160 160
3.1089 -0.6283 -1.8701 160 160 160
3.1251 -0.6321 -1.7813 160 160 160
3.1440 -0.6357 -1.6962 160 160 160
3.3178 -0.6654 -1.6904 160 160 160
3.5355 -0.7025 -1.6985 160 160 160
3.7391 -0.7367 -1.6899 160 160 160
3.9677 -0.7758 -1.6825 160 160 160
4.2513 -0.8242 -1.6857 160 160 160
4.5370 -0.8723 -1.6770 160 160 160
4.8916 -0.9329 -1.6789 160 160 160
5.3693 -1.0142 -1.7021 160 160 160
5.6891 -1.0684 -1.6576 160 160 160
6.8949 -1.2719 -1.8341 160 160 160
7.5607 -1.3845 -1.8208 160 160 160
8.4043 -1.5286 -1.8160 160 160 160
9.5304 -1.7207 -1.8259 160 160 160
11.0040 -1.9209 -1.8375 160 160 160
13.0284 -2.2545 -1.8616 160 160 160
18.7496 -3.1985 -2.2264 160 160 160
30.0394 -5.0629 -2.8510 160 160 160
0.0042 -0.1208 -0.0034 160 160 160
0.0042 -0.1208 -0.0034 160 160 160
0.0042 -0.1208 -0.0034 160 160 160
0.0042 -0.1208 -0.0034 160 160 160
0.0042 -0.1208 -0.0034 160 160 160
0.0042 -0.1208 -0.0034 160 160 160
0.0042 -0.1208 -0.0034 160 160 160
0.0042 -0.1208 -0.0034 160 160 160
0.0042 -0.1208 -0.0034 160 160 160
0.0042 -0.1208 -0.0034 160 160 160
0.0042 -0.1208 -0.0034 160 160 160
0.0042 -0.1208 -0.0034 160 160 160
3.1076 -0.6462 -1.8711 160 160 160
3.1152 -0.6486 -1.7774 160 160 160
3.1392 -0.6533 -1.6952 160 160 160
3.3146 -0.6842 -1.6904 160 160 160
3.5303 -0.7222 -1.6977 160 160 160
3.7300 -0.7577 -1.6874 160 160 160
3.9620 -0.7980 -1.6818 160 160 160
4.2362 -0.8465 -1.6813 160 160 160
4.5343 -0.8993 -1.6777 160 160 160
4.8924 -0.9617 -1.6808 160 160 160
5.3302 -1.0389 -1.6913 160 160 160
5.6852 -1.1022 -1.6581 160 160 160
6.8900 -1.3116 -1.8346 160 160 160
7.5665 -1.4313 -1.8240 160 160 160
8.3958 -1.5781 -1.8160 160 160 160
9.5265 -1.7779 -1.8270 160 160 160
10.9974 -1.9846 -1.8382 160 160 160
13.0312 -2.3341 -1.8639 160 160 160
18.8158 -3.3204 -2.2364 160 160 160
30.2107 -5.2695 -2.8700 160 160 160
0.0042 -0.1205 -0.0034 160 160 160
0.0042 -0.1205 -0.0034 160 160 160
0.0042 -0.1205 -0.0034 160 160 160
0.0042 -0.1205 -0.0034 160 160 160
0.0042 -0.1205 -0.0034 160 160 160
0.0042 -0.1205 -0.0034 160 160 160
0.0042 -0.1205 -0.0034 160 160 160
0.0042 -0.1205 -0.0034 160 160 160
0.0042 -0.1205 -0.0034 160 160 160
0.0042 -0.1205 -0.0034 160 160 160
0.0042 -0.1205 -0.0034 160 160 160
0.0042 -0.1205 -0.0034 160 160 160
3.1010 -0.6638 -1.8691 160 160 160
3.1223 -0.6686 -1.7833 160 160 160
3.1447 -0.6731 -1.6999 160 160 160
3.3059 -0.7027 -1.6877 160 160 160
3.5232 -0.7417 -1.6959 160 160 160
3.7208 -0.7779 -1.6850 160 160 160
3.9597 -0.8216 -1.6825 160 160 160
4.2246 -0.8693 -1.6784 160 160 160
4.5242 -0.9241 -1.6757 160 160 160
4.8800 -0.9882 -1.6782 160 160 160
5.3624 -1.0760 -1.7032 160 160 160
5.6833 -1.1353 -1.6592 160 160 160
6.8868 -1.3516 -1.8356 160 160 160
7.5531 -1.4736 -1.8226 160 160 160
8.4010 -1.6271 -1.8189 160 160 160
9.5268 -1.8325 -1.8288 160 160 160
11.0056 -2.0528 -1.8414 160 160 160
13.0299 -2.4108 -1.8655 160 160 160
18.8767 -3.4457 -2.2459 160 160 160
30.3601 -5.4800 -2.8871 160 160 160
0.0042 -0.1203 -0.0034 160 160 160
0.0042 -0.1203 -0.0034 160 160 160
0.0042 -0.1203 -0.0034 160 160 160
0.0042 -0.1203 -0.0034 160 160 160
94.7260 -16.9807 2.2061 160 160 160
0.0042 -0.1203 -0.0034 160 160 160
0.0042 -0.1203 -0.0034 160 160 160
0.0042 -0.1203 -0.0034 160 160 160
0.0042 -0.1203 -0.0034 160 160 160
0.0042 -0.1203 -0.0034 160 160 160
0.0042 -0.1203 -0.0034 160 160 160
0.0042 -0.1203 -0.0034 160 160 160
3.0979 -0.6808 -1.8691 160 160 160
3.1192 -0.6858 -1.7833 160 160 160
3.1381 -0.6898 -1.6980 160 160 160
3.3026 -0.7209 -1.6877 160 160 160
3.5160 -0.7610 -1.6942 160 160 160
3.7081 -0.7967 -1.6809 160 160 160
3.9666 -0.8454 -1.6871 160 160 160
4.2257 -0.8943 -1.6806 160 160 160
4.5160 -0.9484 -1.6743 160 160 160
4.8861 -1.0181 -1.6820 160 160 160
5.3549 -1.1062 -1.7026 160 160 160
5.6624 -1.1639 -1.6548 160 160 160
6.8796 -1.3910 -1.8356 160 160 160
7.5492 -1.5161 -1.8235 160 160 160
8.3884 -1.6744 -1.8181 160 160 160
9.5284 -1.8892 -1.8310 160 160 160
11.0082 -2.1164 -1.8437 160 160 160
13.0189 -2.4835 -1.8658 160 160 160
18.9204 -3.5620 -2.2533 160 160 160
30.5805 -5.6946 -2.9109 160 160 160
0.0042 -0.1201 -0.0034 160 160 160
0.0042 -0.1201 -0.0034 160 160 160
0.0042 -0.1201 -0.0034 160 160 160
92.5822 -17.0986 -0.0270 160 160 160
0.0042 -0.1201 -0.0034 160 160 160
0.0042 -0.1201 -0.0034 160 160 160
0.0042 -0.1201 -0.0034 160 160 160
0.0042 -0.1201 -0.0034 160 160 160
0.0042 -0.1201 -0.0034 160 160 160
0.0042 -0.1201 -0.0034 160 160 160
0.0042 -0.1201 -0.0034 160 160 160
0.0042 -0.1201 -0.0034 160 160 160
3.0980 -0.6990 -1.8711 160 160 160
3.1296 -0.7060 -1.7911 160 160 160
3.1348 -0.7075 -1.6980 160 160 160
3.3044 -0.7406 -1.6904 160 160 160
3.5158 -0.7816 -1.6959 160 160 160
3.7130 -0.8201 -1.6850 160 160 160
3.9515 -0.8659 -1.6825 160 160 160
4.2194 -0.9180 -1.6798 160 160 160
4.5128 -0.9752 -1.6750 160 160 160
4.8772 -1.0452 -1.6807 160 160 160
5.3435 -1.1357 -1.7008 160 160 160
5.6467 -1.1954 -1.6520 160 160 160
6.8760 -1.4310 -1.8366 160 160 160
7.5408 -1.5605 -1.8235 160 160 160
8.3809 -1.7242 -1.8185 160 160 160
9.5235 -1.9464 -1.8321 160 160 160
11.0120 -2.1823 -1.8462 160 160 160
12.9969 -2.5589 -1.8646 160 160 160
18.9921 -3.6877 -2.2642 160 160 160
30.8141 -5.9202 -2.9362 160 160 160
0.0042 -0.1198 -0.0034 160 160 160
0.0042 -0.1198 -0.0034 160 160 160
0.0042 -0.1198 -0.0034 160 160 160
0.0042 -0.1198 -0.0034 160 160 160
0.0042 -0.1198 -0.0034 160 160 160
0.0042 -0.1198 -0.0034 160 160 160
0.0042 -0.1198 -0.0034 160 160 160
0.0042 -0.1198 -0.0034 160 160 160
0.0042 -0.1198 -0.0034 160 160 160
0.0042 -0.1198 -0.0034 160 160 160
0.0042 -0.1198 -0.0034 160 160 160
0.0042 -0.1198 -0.0034 160 160 160
3.0945 -0.7171 -1.8711 160 160 160
3.1227 -0.7236 -1.7891 160 160 160
3.1399 -0.7275 -1.7027 160 160 160
3.2866 -0.7572 -1.6832 160 160 160
3.5084 -0.8009 -1.6942 160 160 160
3.7125 -0.8419 -1.6866 160 160 160
3.9452 -0.8887 -1.6817 160 160 160
4.2110 -0.9413 -1.6784 160 160 160
4.5060 -1.0005 -1.6743 160 160 160
4.8718 -1.0730 -1.6807 160 160 160
5.3282 -1.1643 -1.6978 160 160 160
5.6423 -1.2280 -1.6526 160 160 160
6.8741 -1.4714 -1.8382 160 160 160
7.5419 -1.6055 -1.8258 160 160 160
8.3738 -1.7710 -1.8189 160 160 160
9.5267 -2.0019 -1.8347 160 160 160
11.0151 -2.2502 -1.8488 160 160 160
12.9807 -2.6329 -1.8644 160 160 160
19.0681 -3.8189 -2.2758 160 160 160
30.8124 -6.1089 -2.9393 160 160 160
0.0042 -0.1196 -0.0034 160 160 160
0.0042 -0.1196 -0.0034 160 160 160
0.0042 -0.1196 -0.0034 160 160 160
0.0042 -0.1196 -0.0034 160 160 160
0.0042 -0.1196 -0.0034 160 160 160
0.0042 -0.1196 -0.0034 160 160 160
0.0042 -0.1196 -0.0034 160 160 160
0.0042 -0.1196 -0.0034 160 160 160
0.0042 -0.1196 -0.0034 160 160 160
0.0042 -0.1196 -0.0034 160 160 160
0.0042 -0.1196 -0.0034 160 160 160
0.0042 -0.1196 -0.0034 160 160 160
3.0928 -0.7344 -1.8721 160 160 160
3.1227 -0.7415 -1.7911 160 160 160
3.1416 -0.7458 -1.7055 160 160 160
3.2952 -0.7777 -1.6895 160 160 160
3.5062 -0.8211 -1.6950 160 160 160
3.7119 -0.8637 -1.6882 160 160 160
3.9354 -0.9093 -1.6794 160 160 160
4.1953 -0.9630 -1.6740 160 160 160
4.5119 -1.0284 -1.6784 160 160 160
4.8643 -1.1004 -1.6801 160 160 160
5.3352 -1.1973 -1.7020 160 160 160
5.6377 -1.2605 -1.6531 160 160 160
6.8700 -1.5114 -1.8392 160 160 160
7.5314 -1.6482 -1.8253 160 160 160
8.3734 -1.8223 -1.8210 160 160 160
9.5211 -2.0593 -1.8358 160 160 160
11.0147 -2.3137 -1.8508 160 160 160
12.9621 -2.7065 -1.8638 160 160 160
19.1504 -3.9455 -2.2881 160 160 160
30.5286 -6.2303 -2.9155 160 160 160
0.0042 -0.1194 -0.0034 160 160 160
0.0042 -0.1194 -0.0034 160 160 160
0.0042 -0.1194 -0.0034 160 160 160
0.0042 -0.1194 -0.0034 160 160 160
0.0042 -0.1194 -0.0034 160 160 160
0.0042 -0.1194 -0.0034 160 160 160
0.0042 -0.1194 -0.0034 160 160 160
0.0042 -0.1194 -0.0034 160 160 160
39.9281 -8.2207 4.7503 160 160 160
0.0042 -0.1194 -0.0034 160 160 160
0.0042 -0.1194 -0.0034 160 160 160
0.0042 -0.1194 -0.0034 160 160 160
3.0891 -0.7525 -1.8721 160 160 160
3.1172 -0.7593 -1.7901 160 160 160
3.1327 -0.7631 -1.7027 160 160 160
3.2755 -0.7937 -1.6814 160 160 160
3.5020 -0.8416 -1.6950 160 160 160
3.7004 -0.8833 -1.6849 160 160 160
3.9325 -0.9327 -1.6802 160 160 160
4.2030 -0.9903 -1.6791 160 160 160
4.5029 -1.0533 -1.6770 160 160 160
4.8640 -1.1301 -1.6820 160 160 160
5.3250 -1.2279 -1.7008 160 160 160
5.6254 -1.2915 -1.6514 160 160 160
6.8578 -1.5510 -1.8381 160 160 160
7.5396 -1.6948 -1.8295 160 160 160
8.3692 -1.8714 -1.8222 160 160 160
9.5194 -2.1157 -1.8377 160 160 160
11.0189 -2.3822 -1.8537 160 160 160
12.9684 -2.7851 -1.8668 160 160 160
19.2499 -4.0839 -2.3027 160 160 160
30.0218 -6.3139 -2.8706 160 160 160
0.0042 -0.1191 -0.0034 160 160 160
0.0042 -0.1191 -0.0034 160 160 160
0.0042 -0.1191 -0.0034 160 160 160
0.0042 -0.1191 -0.0034 160 160 160
0.0042 -0.1191 -0.0034 160 160 160
0.0042 -0.1191 -0.0034 160 160 160
0.0042 -0.1191 -0.0034 160 160 160
0.0042 -0.1191 -0.0034 160 160 160
0.0042 -0.1191 -0.0034 160 160 160
0.0042 -0.1191 -0.0034 160 160 160
0.0042 -0.1191 -0.0034 160 160 160
0.0042 -0.1191 -0.0034 160 160 160
3.0871 -0.7703 -1.8731 160 160 160
3.1237 -0.7792 -1.7960 160 160 160
3.1237 -0.7797 -1.6999 160 160 160
3.2716 -0.8123 -1.6814 160 160 160
3.5048 -0.8630 -1.6984 160 160 160
3.7084 -0.9070 -1.6906 160 160 160
3.9205 -0.9535 -1.6771 160 160 160
4.1979 -1.0142 -1.6791 160 160 160
4.5085 -1.0813 -1.6811 160 160 160
4.8636 -1.1589 -1.6839 160 160 160
5.3167 -1.2578 -1.7002 160 160 160
5.6280 -1.3256 -1.6542 160 160 160
6.8551 -1.5914 -1.8396 160 160 160
7.5266 -1.7371 -1.8285 160 160 160
8.3590 -1.9192 -1.8222 160 160 160
9.5155 -2.1718 -1.8391 160 160 160
11.0173 -2.4478 -1.8556 160 160 160
12.9935 -2.8680 -1.8727 160 160 160
19.3629 -4.2231 -2.3190 160 160 160
29.6604 -6.4171 -2.8394 160 160 160
32.2156 -6.9656 -2.3143 160 160 160
0.0042 -0.1189 -0.0033 160 160 160
32.1912 -6.9838 -0.7756 160 160 160
0.0042 -0.1189 -0.0033 160 160 160
0.0042 -0.1189 -0.0033 160 160 160
51.4194 -11.1317 2.4357 160 160 160
0.0042 -0.1189 -0.0033 160 160 160
0.0042 -0.1189 -0.0033 160 160 160
0.0042 -0.1189 -0.0033 160 160 160
0.0042 -0.1189 -0.0033 160 160 160
0.0042 -0.1189 -0.0033 160 160 160
0.0042 -0.1189 -0.0033 160 160 160
3.0833 -0.7878 -1.8731 160 160 160
3.1096 -0.7947 -1.7901 160 160 160
3.1216 -0.7978 -1.7008 160 160 160
3.2623 -0.8297 -1.6787 160 160 160
3.4987 -0.8825 -1.6976 160 160 160
3.7020 -0.9276 -1.6898 160 160 160
3.9282 -0.9786 -1.6825 160 160 160
4.1908 -1.0376 -1.6783 160 160 160
4.5047 -1.1073 -1.6817 160 160 160
4.8613 -1.1875 -1.6852 160 160 160
5.3249 -1.2914 -1.7050 160 160 160
5.6134 -1.3560 -1.6520 160 160 160
6.8522 -1.6318 -1.8412 160 160 160
7.5228 -1.7813 -1.8299 160 160 160
8.3562 -1.9687 -1.8239 160 160 160
9.5150 -2.2288 -1.8414 160 160 160
11.0114 -2.5125 -1.8569 160 160 160
12.9523 -2.9369 -1.8690 160 160 160
19.4748 -4.3637 -2.3352 160 160 160
25.3612 -5.6564 -2.4313 160 160 160
25.6774 -5.7301 -1.8475 160 160 160
0.0042 -0.1187 -0.0033 160 160 160
39.3110 -8.7387 -0.9476 160 160 160
39.4668 -8.7801 -0.0133 160 160 160
0.0042 -0.1187 -0.0033 160 160 160
0.0042 -0.1187 -0.0033 160 160 160
0.0042 -0.1187 -0.0033 160 160 160
0.0042 -0.1187 -0.0033 160 160 160
39.7188 -8.9007 4.7430 160 160 160
0.0042 -0.1187 -0.0033 160 160 160
0.0042 -0.1187 -0.0033 160 160 160
0.0042 -0.1187 -0.0033 160 160 160
3.0843 -0.8069 -1.8762 160 160 160
3.1056 -0.8128 -1.7901 160 160 160
3.1192 -0.8164 -1.7017 160 160 160
3.2720 -0.8518 -1.6859 160 160 160
3.4925 -0.9020 -1.6967 160 160 160
3.6882 -0.9473 -1.6857 160 160 160
3.9213 -1.0012 -1.6817 160 160 160
4.1855 -1.0615 -1.6783 160 160 160
4.5006 -1.1342 -1.6824 160 160 160
4.8606 -1.2164 -1.6871 160 160 160
5.3199 -1.3222 -1.7055 160 160 160
5.6097 -1.3898 -1.6531 160 160 160
6.8434 -1.6709 -1.8411 160 160 160
7.5242 -1.8282 -1.8327 160 160 160
8.3473 -2.0169 -1.8243 160 160 160
9.5046 -2.2837 -1.8417 160 160 160
11.0143 -2.5813 -1.8598 160 160 160
12.9682 -3.0207 -1.8738 160 160 160
19.5365 -4.4983 -2.3457 160 160 160
25.3493 -5.8111 -2.4333 160 160 160
25.4199 -5.8316 -1.8314 160 160 160
25.4290 -5.8429 -1.2251 160 160 160
0.0041 -0.1184 -0.0033 160 160 160
0.0041 -0.1184 -0.0033 160 160 160
0.0041 -0.1184 -0.0033 160 160 160
51.1764 -11.6962 2.4304 160 160 160
50.6792 -11.6023 3.6172 160 160 160
0.0041 -0.1184 -0.0033 160 160 160
0.0041 -0.1184 -0.0033 160 160 160
0.0041 -0.1184 -0.0033 160 160 160
0.0041 -0.1184 -0.0033 160 160 160
0.0041 -0.1184 -0.0033 160 160 160
3.0788 -0.8235 -1.8751 160 160 160
3.1101 -0.8318 -1.7950 160 160 160
3.1273 -0.8363 -1.7083 160 160 160
3.2696 -0.8702 -1.6868 160 160 160
3.4914 -0.9226 -1.6984 160 160 160
3.6798 -0.9674 -1.6841 160 160 160
3.9127 -1.0219 -1.6801 160 160 160
4.1909 -1.0878 -1.6827 160 160 160
4.4947 -1.1598 -1.6824 160 160 160
4.8653 -1.2466 -1.6909 160 160 160
5.3204 -1.3542 -1.7079 160 160 160
5.6191 -1.4257 -1.6580 160 160 160
6.8400 -1.7113 -1.8427 160 160 160
7.5086 -1.8699 -1.8313 160 160 160
8.3530 -2.0700 -1.8280 160 160 160
9.4974 -2.3411 -1.8428 160 160 160
11.0177 -2.6464 -1.8627 160 160 160
13.0247 -3.1119 -1.8843 160 160 160
19.5795 -4.6226 -2.3538 160 160 160
25.6373 -6.0259 -2.4640 160 160 160
25.4002 -5.9805 -1.8323 160 160 160
0.0041 -0.1182 -0.0033 160 160 160
0.0041 -0.1182 -0.0033 160 160 160
0.0041 -0.1182 -0.0033 160 160 160
0.0041 -0.1182 -0.0033 160 160 160
52.4283 -12.2965 2.4932 160 160 160
0.0041 -0.1182 -0.0033 160 160 160
39.4968 -9.3215 3.7698 160 160 160
0.0041 -0.1182 -0.0033 160 160 160
0.0041 -0.1182 -0.0033 160 160 160
0.0041 -0.1182 -0.0033 160 160 160
0.0041 -0.1182 -0.0033 160 160 160
3.0712 -0.8407 -1.8731 160 160 160
3.1092 -0.8508 -1.7969 160 160 160
3.1196 -0.8538 -1.7064 160 160 160
3.2842 -0.8939 -1.6966 160 160 160
3.4813 -0.9418 -1.6958 160 160 160
3.6856 -0.9908 -1.6890 160 160 160
3.9198 -1.0478 -1.6855 160 160 160
4.1724 -1.1093 -1.6776 160 160 160
4.4922 -1.1862 -1.6838 160 160 160
4.8658 -1.2769 -1.6935 160 160 160
5.3185 -1.3868 -1.7097 160 160 160
5.9200 -1.5315 -1.7490 160 160 160
6.8342 -1.7524 -1.8437 160 160 160
7.5041 -1.9141 -1.8326 160 160 160
8.3435 -2.1182 -1.8284 160 160 160
9.4959 -2.3981 -1.8450 160 160 160
11.0198 -2.7155 -1.8656 160 160 160
12.9879 -3.1819 -1.8815 160 160 160
19.6086 -4.7515 -2.3605 160 160 160
25.6019 -6.1774 -2.4640 160 160 160
25.3098 -6.1129 -1.8283 160 160 160
0.0041 -0.1180 -0.0033 160 160 160
0.0041 -0.1180 -0.0033 160 160 160
0.0041 -0.1180 -0.0033 160 160 160
50.3189 -12.1024 1.1848 160 160 160
50.4702 -12.1570 2.4034 160 160 160
50.8621 -12.2598 3.6400 160 160 160
51.7225 -12.4843 4.9446 160 160 160
0.0041 -0.1180 -0.0033 160 160 160
0.0041 -0.1180 -0.0033 160 160 160
0.0041 -0.1180 -0.0033 160 160 160
0.0041 -0.1180 -0.0033 160 160 160
3.0686 -0.8584 -1.8741 160 160 160
3.1100 -0.8696 -1.7998 160 160 160
3.1307 -0.8752 -1.7149 160 160 160
3.2814 -0.9129 -1.6975 160 160 160
3.4608 -0.9571 -1.6881 160 160 160
3.6663 -1.0083 -1.6824 160 160 160
3.9180 -1.0710 -1.6871 160 160 160
4.1776 -1.1350 -1.6819 160 160 160
4.4842 -1.2113 -1.6831 160 160 160
4.8556 -1.3029 -1.6922 160 160 160
5.3132 -1.4166 -1.7103 160 160 160
6.1545 -1.6247 -1.8208 160 160 160
6.8306 -1.7916 -1.8452 160 160 160
7.4974 -1.9579 -1.8335 160 160 160
8.3380 -2.1659 -1.8296 160 160 160
9.4868 -2.4517 -1.8458 160 160 160
11.0162 -2.7813 -1.8676 160 160 160
12.9759 -3.2577 -1.8824 160 160 160
19.6685 -4.8850 -2.3710 160 160 160
30.1296 -7.4321 -2.9032 160 160 160
45.6000 -11.1967 -3.2960 160 160 160
0.0041 -0.1177 -0.0033 160 160 160
0.0041 -0.1177 -0.0033 160 160 160
0.0041 -0.1177 -0.0033 160 160 160
50.1384 -12.3642 1.1822 160 160 160
50.1733 -12.3820 2.3925 160 160 160
50.2003 -12.4071 3.5977 160 160 160
51.5986 -12.7589 4.9395 160 160 160
51.4698 -12.7464 6.1806 160 160 160
0.0041 -0.1177 -0.0033 160 160 160
0.0041 -0.1177 -0.0033 160 160 160
0.0041 -0.1177 -0.0033 160 160 160
3.0644 -0.8753 -1.8741 160 160 160
3.1075 -0.8871 -1.8008 160 160 160
3.1230 -0.8915 -1.7130 160 160 160
3.2856 -0.9331 -1.7020 160 160 160
3.4683 -0.9798 -1.6941 160 160 160
3.6859 -1.0353 -1.6938 160 160 160
3.9108 -1.0921 -1.6863 160 160 160
4.1699 -1.1582 -1.6812 160 160 160
4.4760 -1.2364 -1.6824 160 160 160
4.8542 -1.3319 -1.6941 160 160 160
5.3075 -1.4474 -1.7109 160 160 160
6.2427 -1.6842 -1.8494 160 160 160
6.8208 -1.8306 -1.8452 160 160 160
7.4961 -2.0031 -1.8358 160 160 160
8.3352 -2.2174 -1.8317 160 160 160
9.4843 -2.5105 -1.8480 160 160 160
11.0108 -2.8448 -1.8692 160 160 160
12.9787 -3.3372 -1.8854 160 160 160
19.6994 -5.0086 -2.3779 160 160 160
30.2564 -7.6416 -2.9194 160 160 160
45.5143 -11.4532 -3.2944 160 160 160
0.0041 -0.1175 -0.0033 160 160 160
0.0041 -0.1175 -0.0033 160 160 160
0.0041 -0.1175 -0.0033 160 160 160
49.7726 -12.5691 1.1752 160 160 160
0.0041 -0.1175 -0.0033 160 160 160
49.5870 -12.5593 3.5588 160 160 160
50.9801 -12.9278 4.8874 160 160 160
51.4156 -13.0467 6.1829 160 160 160
0.0041 -0.1175 -0.0033 160 160 160
0.0041 -0.1175 -0.0033 160 160 160
0.0041 -0.1175 -0.0033 160 160 160
3.0615 -0.8936 -1.8751 160 160 160
3.1062 -0.9061 -1.8028 160 160 160
3.1132 -0.9084 -1.7101 160 160 160
3.2859 -0.9536 -1.7047 160 160 160
3.4806 -1.0045 -1.7027 160 160 160
3.6664 -1.0526 -1.6873 160 160 160
3.9067 -1.1154 -1.6870 160 160 160
4.1655 -1.1831 -1.6819 160 160 160
4.4695 -1.2619 -1.6824 160 160 160
4.8488 -1.3609 -1.6947 160 160 160
5.3032 -1.4795 -1.7121 160 160 160
6.2578 -1.7260 -1.8566 160 160 160
6.8124 -1.8712 -1.8456 160 160 160
7.4832 -2.0455 -1.8354 160 160 160
8.3305 -2.2670 -1.8334 160 160 160
9.4780 -2.5667 -1.8494 160 160 160
11.0078 -2.9132 -1.8714 160 160 160
12.9734 -3.4150 -1.8874 160 160 160
19.7201 -5.1378 -2.3839 160 160 160
30.3232 -7.8490 -2.9302 160 160 160
45.5431 -11.7387 -3.3013 160 160 160
0.0041 -0.1173 -0.0033 160 160 160
0.0041 -0.1173 -0.0033 160 160 160
0.0041 -0.1173 -0.0033 160 160 160
0.0041 -0.1173 -0.0033 160 160 160
50.0886 -12.9823 2.3955 160 160 160
50.7861 -13.1708 3.6503 160 160 160
50.7089 -13.1698 4.8686 160 160 160
51.3958 -13.3657 6.1899 160 160 160
0.0041 -0.1173 -0.0033 160 160 160
0.0041 -0.1173 -0.0033 160 160 160
0.0041 -0.1173 -0.0033 160 160 160
3.0504 -0.9092 -1.8710 160 160 160
3.1050 -0.9246 -1.8047 160 160 160
3.1172 -0.9283 -1.7148 160 160 160
3.2654 -0.9682 -1.6966 160 160 160
3.4684 -1.0224 -1.6992 160 160 160
3.6732 -1.0773 -1.6930 160 160 160
3.8938 -1.1358 -1.6839 160 160 160
4.1574 -1.2064 -1.6812 160 160 160
4.4644 -1.2885 -1.6831 160 160 160
4.8452 -1.3894 -1.6960 160 160 160
5.2971 -1.5102 -1.7126 160 160 160
6.2259 -1.7569 -1.8500 160 160 160
6.8134 -1.9131 -1.8487 160 160 160
7.4773 -2.0910 -1.8367 160 160 160
8.3195 -2.3165 -1.8338 160 160 160
9.4690 -2.6241 -1.8505 160 160 160
10.9973 -2.9776 -1.8724 160 160 160
13.0016 -3.5040 -1.8943 160 160 160
19.7678 -5.2709 -2.3932 160 160 160
30.3630 -8.0451 -2.9383 160 160 160
46.9693 -12.3993 -3.4097 160 160 160
51.8531 -13.6861 -2.5157 160 160 160
51.8504 -13.7047 -1.2607 160 160 160
51.8986 -13.7366 -0.0163 160 160 160
51.9638 -13.7634 1.2309 160 160 160
50.1317 -13.3008 2.4012 160 160 160
49.9650 -13.2756 3.5968 160 160 160
50.4650 -13.4261 4.8527 160 160 160
52.1446 -13.8788 6.2896 160 160 160
0.0041 -0.1170 -0.0033 160 160 160
0.0041 -0.1170 -0.0033 160 160 160
0.0041 -0.1170 -0.0033 160 160 160
3.0489 -0.9279 -1.8730 160 160 160
3.1019 -0.9432 -1.8057 160 160 160
3.1123 -0.9465 -1.7148 160 160 160
3.2707 -0.9900 -1.7020 160 160 160
3.4752 -1.0460 -1.7052 160 160 160
3.6764 -1.1005 -1.6970 160 160 160
3.8966 -1.1610 -1.6878 160 160 160
4.1491 -1.2302 -1.6804 160 160 160
4.4558 -1.3134 -1.6824 160 160 160
4.8339 -1.4169 -1.6947 160 160 160
5.2888 -1.5413 -1.7126 160 160 160
6.2423 -1.7995 -1.8577 160 160 160
6.8027 -1.9532 -1.8487 160 160 160
7.4809 -2.1378 -1.8404 160 160 160
8.3199 -2.3677 -1.8367 160 160 160
9.4563 -2.6788 -1.8509 160 160 160
10.9992 -3.0476 -1.8756 160 160 160
0.0041 -0.1168 -0.0033 160 160 160
19.8425 -5.4159 -2.4060 160 160 160
0.0041 -0.1168 -0.0033 160 160 160
49.7868 -13.4422 -3.6196 160 160 160
0.0041 -0.1168 -0.0033 160 160 160
0.0041 -0.1168 -0.0033 160 160 160
74.3489 -20.0860 -0.0220 160 160 160
49.2657 -13.3670 1.1687 160 160 160
0.0041 -0.1168 -0.0033 160 160 160
50.3258 -13.6803 3.6284 160 160 160
50.4588 -13.7350 4.8596 160 160 160
51.2951 -13.9799 6.1970 160 160 160
0.0041 -0.1168 -0.0033 160 160 160
0.0041 -0.1168 -0.0033 160 160 160
0.0041 -0.1168 -0.0033 160 160 160
3.0525 -0.9474 -1.8781 160 160 160
3.0954 -0.9603 -1.8047 160 160 160
3.1126 -0.9655 -1.7176 160 160 160
3.2535 -1.0052 -1.6957 160 160 160
3.4630 -1.0632 -1.7018 160 160 160
3.6742 -1.1223 -1.6987 160 160 160
3.8923 -1.1836 -1.6886 160 160 160
4.1446 -1.2536 -1.6812 160 160 160
4.4507 -1.3393 -1.6830 160 160 160
4.8266 -1.4436 -1.6947 160 160 160
5.2844 -1.5715 -1.7138 160 160 160
6.2214 -1.8320 -1.8544 160 160 160
6.7811 -1.9877 -1.8456 160 160 160
7.4673 -2.1800 -1.8399 160 160 160
8.3110 -2.4148 -1.8375 160 160 160
9.4551 -2.7349 -1.8535 160 160 160
10.9878 -3.1121 -1.8766 160 160 160
12.6637 -3.5715 -1.8508 160 160 160
19.9094 -5.5563 -2.4178 160 160 160
0.0041 -0.1166 -0.0033 160 160 160
54.6662 -15.0854 -3.9801 160 160 160
0.0041 -0.1166 -0.0033 160 160 160
29.7597 -8.2816 -0.7271 160 160 160
0.0041 -0.1166 -0.0033 160 160 160
0.0041 -0.1166 -0.0033 160 160 160
30.3663 -8.4765 1.4577 160 160 160
50.1662 -13.9469 3.6226 160 160 160
50.3571 -14.0090 4.8572 160 160 160
51.6057 -14.3728 6.2441 160 160 160
0.0041 -0.1166 -0.0033 160 160 160
0.0041 -0.1166 -0.0033 160 160 160
0.0041 -0.1166 -0.0033 160 160 160
3.0445 -0.9633 -1.8761 160 160 160
3.0923 -0.9777 -1.8057 160 160 160
3.1146 -0.9845 -1.7214 160 160 160
3.2554 -1.0250 -1.6993 160 160 160
3.4627 -1.0843 -1.7043 160 160 160
3.6595 -1.1407 -1.6946 160 160 160
3.8667 -1.1995 -1.6801 160 160 160
4.1488 -1.2802 -1.6855 160 160 160
4.4489 -1.3661 -1.6851 160 160 160
4.8207 -1.4716 -1.6953 160 160 160
5.2686 -1.5996 -1.7114 160 160 160
6.2244 -1.8712 -1.8582 160 160 160
6.7814 -2.0296 -1.8486 160 160 160
7.4702 -2.2269 -1.8436 160 160 160
8.3029 -2.4653 -1.8387 160 160 160
9.4432 -2.7917 -1.8542 160 160 160
10.9862 -3.1773 -1.8792 160 160 160
12.1476 -3.5056 -1.7783 160 160 160
0.0041 -0.1163 -0.0033 160 160 160
0.0041 -0.1163 -0.0033 160 160 160
0.0041 -0.1163 -0.0033 160 160 160
0.0041 -0.1163 -0.0033 160 160 160
29.7873 -8.4734 -0.7289 160 160 160
29.7464 -8.4731 -0.0107 160 160 160
50.1384 -14.2121 1.1933 160 160 160
29.2120 -8.3394 1.4044 160 160 160
50.0609 -14.2279 3.6209 160 160 160
51.1038 -14.5411 4.9375 160 160 160
0.0041 -0.1163 -0.0033 160 160 160
0.0041 -0.1163 -0.0033 160 160 160
0.0041 -0.1163 -0.0033 160 160 160
0.0041 -0.1163 -0.0033 160 160 160
3.0328 -0.9791 -1.8720 160 160 160
3.0938 -0.9977 -1.8096 160 160 160
3.1077 -1.0022 -1.7204 160 160 160
3.2397 -1.0411 -1.6939 160 160 160
3.4552 -1.1040 -1.7035 160 160 160
3.6659 -1.1650 -1.7003 160 160 160
3.8762 -1.2267 -1.6870 160 160 160
4.1400 -1.3040 -1.6848 160 160 160
4.4399 -1.3909 -1.6844 160 160 160
4.8162 -1.5009 -1.6966 160 160 160
5.2652 -1.6321 -1.7132 160 160 160
6.2160 -1.9072 -1.8588 160 160 160
6.7755 -2.0711 -1.8502 160 160 160
7.4598 -2.2701 -1.8441 160 160 160
8.2986 -2.5155 -1.8408 160 160 160
9.4371 -2.8484 -1.8560 160 160 160
10.9811 -3.2458 -1.8814 160 160 160
11.9946 -3.5371 -1.7587 160 160 160
12.1423 -3.5838 -1.4804 160 160 160
0.0041 -0.1161 -0.0033 160 160 160
0.0041 -0.1161 -0.0033 160 160 160
0.0041 -0.1161 -0.0033 160 160 160
29.5624 -8.5993 -0.7246 160 160 160
0.0041 -0.1161 -0.0033 160 160 160
52.5713 -15.2325 1.2535 160 160 160
29.0283 -8.4734 1.3980 160 160 160
27.7877 -8.1213 2.0116 160 160 160
30.1969 -8.8269 2.9208 160 160 160
51.8785 -15.1017 6.2979 160 160 160
0.0041 -0.1161 -0.0033 160 160 160
0.0041 -0.1161 -0.0033 160 160 160
0.0041 -0.1161 -0.0033 160 160 160
3.0294 -0.9968 -1.8730 160 160 160
3.0987 -1.0181 -1.8155 160 160 160
3.1093 -1.0218 -1.7242 160 160 160
3.2428 -1.0620 -1.6983 160 160 160
3.4459 -1.1226 -1.7018 160 160 160
3.6738 -1.1899 -1.7068 160 160 160
3.8680 -1.2482 -1.6862 160 160 160
4.1331 -1.3275 -1.6848 160 160 160
4.4415 -1.4188 -1.6878 160 160 160
4.8191 -1.5315 -1.7004 160 160 160
5.2747 -1.6675 -1.7191 160 160 160
6.2111 -1.9443 -1.8604 160 160 160
6.7864 -2.1163 -1.8562 160 160 160
7.4510 -2.3138 -1.8450 160 160 160
8.2941 -2.5657 -1.8429 160 160 160
9.4250 -2.9035 -1.8568 160 160 160
10.9686 -3.3103 -1.8824 160 160 160
11.9786 -3.6068 -1.7593 160 160 160
12.1089 -3.6494 -1.4787 160 160 160
12.1315 -3.6606 -1.1851 160 160 160
0.0041 -0.1159 -0.0033 160 160 160
0.0041 -0.1159 -0.0033 160 160 160
29.6647 -8.8133 -0.7283 160 160 160
71.3329 -21.0453 -0.0211 160 160 160
50.6591 -14.9983 1.2098 160 160 160
28.4585 -8.4865 1.3728 160 160 160
27.4751 -8.2024 1.9923 160 160 160
30.0680 -8.9770 2.9133 160 160 160
0.0041 -0.1159 -0.0033 160 160 160
0.0041 -0.1159 -0.0033 160 160 160
0.0041 -0.1159 -0.0033 160 160 160
0.0041 -0.1159 -0.0033 160 160 160
3.0359 -1.0174 -1.8801 160 160 160
3.0935 -1.0357 -1.8155 160 160 160
3.1057 -1.0399 -1.7251 160 160 160
3.2219 -1.0757 -1.6903 160 160 160
3.4453 -1.1437 -1.7043 160 160 160
3.6728 -1.2124 -1.7092 160 160 160
3.8649 -1.2713 -1.6877 160 160 160
4.1314 -1.3526 -1.6869 160 160 160
4.4339 -1.4441 -1.6878 160 160 160
4.8072 -1.5578 -1.6992 160 160 160
5.2767 -1.7008 -1.7227 160 160 160
6.2023 -1.9803 -1.8609 160 160 160
6.7841 -2.1579 -1.8588 160 160 160
7.4476 -2.3591 -1.8473 160 160 160
8.2798 -2.6131 -1.8428 160 160 160
9.4144 -2.9591 -1.8579 160 160 160
10.9633 -3.3770 -1.8846 160 160 160
11.9469 -3.6720 -1.7576 160 160 160
12.0750 -3.7147 -1.4771 160 160 160
12.0994 -3.7266 -1.1840 160 160 160
0.0040 -0.1156 -0.0033 160 160 160
0.0040 -0.1156 -0.0033 160 160 160
29.5318 -8.9588 -0.7263 160 160 160
28.6628 -8.7040 -0.0104 160 160 160
29.9948 -9.1145 0.7162 160 160 160
28.3716 -8.6383 1.3710 160 160 160
27.4091 -8.3543 1.9909 160 160 160
30.2148 -9.2092 2.9326 160 160 160
29.3141 -8.9492 3.5692 160 160 160
0.0040 -0.1156 -0.0033 160 160 160
0.0040 -0.1156 -0.0033 160 160 160
0.0040 -0.1156 -0.0033 160 160 160
3.0290 -1.0341 -1.8791 160 160 160
3.0965 -1.0557 -1.8203 160 160 160
3.1122 -1.0611 -1.7317 160 160 160
3.2386 -1.1008 -1.7019 160 160 160
3.4376 -1.1627 -1.7035 160 160 160
3.6595 -1.2311 -1.7059 160 160 160
3.8653 -1.2954 -1.6908 160 160 160
4.1367 -1.3799 -1.6920 160 160 160
4.4298 -1.4704 -1.6891 160 160 160
4.7970 -1.5847 -1.6985 160 160 160
5.2784 -1.7342 -1.7263 160 160 160
6.1952 -2.0168 -1.8620 160 160 160
6.7815 -2.1994 -1.8613 160 160 160
7.4308 -2.4005 -1.8463 160 160 160
8.2691 -2.6616 -1.8437 160 160 160
9.4073 -3.0158 -1.8597 160 160 160
10.9614 -3.4449 -1.8876 160 160 160
11.9168 -3.7375 -1.7562 160 160 160
12.0503 -3.7827 -1.4766 160 160 160
12.0632 -3.7912 -1.1825 160 160 160
0.0041 -0.1154 -0.0032 160 160 160
0.0041 -0.1154 -0.0032 160 160 160
30.0101 -9.2902 -0.7392 160 160 160
0.0041 -0.1154 -0.0032 160 160 160
29.9693 -9.2948 0.7169 160 160 160
27.8274 -8.6493 1.3470 160 160 160
27.0580 -8.4184 1.9689 160 160 160
28.4621 -8.8602 2.7671 160 160 160
28.3343 -8.8317 3.4559 160 160 160
0.0041 -0.1154 -0.0032 160 160 160
0.0041 -0.1154 -0.0032 160 160 160
0.0041 -0.1154 -0.0032 160 160 160
3.0171 -1.0492 -1.8750 160 160 160
3.0860 -1.0717 -1.8174 160 160 160
3.0999 -1.0766 -1.7279 160 160 160
3.2414 -1.1218 -1.7064 160 160 160
3.4298 -1.1817 -1.7026 160 160 160
3.6580 -1.2541 -1.7084 160 160 160
3.8373 -1.3107 -1.6816 160 160 160
4.1311 -1.4039 -1.6927 160 160 160
4.4253 -1.4975 -1.6905 160 160 160
4.7849 -1.6108 -1.6972 160 160 160
5.2672 -1.7637 -1.7257 160 160 160
6.1783 -2.0515 -1.8604 160 160 160
6.7749 -2.2399 -1.8628 160 160 160
7.4190 -2.4448 -1.8468 160 160 160
8.2557 -2.7109 -1.8441 160 160 160
9.3993 -3.0742 -1.8615 160 160 160
10.9514 -3.5106 -1.8892 160 160 160
11.8837 -3.8043 -1.7545 160 160 160
12.0821 -3.8682 -1.4831 160 160 160
12.0343 -3.8579 -1.1817 160 160 160
32.0146 -10.0862 -2.3557 160 160 160
0.0040 -0.1152 -0.0032 160 160 160
30.3920 -9.5982 -0.7499 160 160 160
0.0040 -0.1152 -0.0032 160 160 160
70.3813 -22.1177 1.6912 160 160 160
27.4690 -8.7122 1.3320 160 160 160
27.0464 -8.5902 1.9717 160 160 160
28.6017 -9.0886 2.7859 160 160 160
28.4846 -9.0573 3.4805 160 160 160
0.0040 -0.1152 -0.0032 160 160 160
0.0040 -0.1152 -0.0032 160 160 160
0.0040 -0.1152 -0.0032 160 160 160
3.0180 -1.0688 -1.8791 160 160 160
3.0836 -1.0908 -1.8193 160 160 160
3.0925 -1.0942 -1.7270 160 160 160
3.2353 -1.1407 -1.7064 160 160 160
3.4270 -1.2022 -1.7043 160 160 160
3.6322 -1.2688 -1.6994 160 160 160
3.8512 -1.3399 -1.6908 160 160 160
4.1343 -1.4308 -1.6971 160 160 160
4.4137 -1.5215 -1.6891 160 160 160
4.7726 -1.6369 -1.6959 160 160 160
5.2612 -1.7949 -1.7269 160 160 160
6.1780 -2.0902 -1.8637 160 160 160
6.7681 -2.2803 -1.8643 160 160 160
7.4166 -2.4908 -1.8496 160 160 160
8.2448 -2.7578 -1.8449 160 160 160
9.3939 -3.1299 -1.8638 160 160 160
10.9424 -3.5787 -1.8911 160 160 160
11.8623 -3.8723 -1.7545 160 160 160
11.9877 -3.9166 -1.4743 160 160 160
12.0062 -3.9271 -1.1811 160 160 160
0.0040 -0.1149 -0.0032 160 160 160
31.9852 -10.2912 -1.5763 160 160 160
29.2243 -9.4183 -0.7225 160 160 160
28.2135 -9.1072 -0.0103 160 160 160
30.3363 -9.7955 0.7284 160 160 160
27.5447 -8.9099 1.3381 160 160 160
26.8413 -8.6955 1.9603 160 160 160
29.7329 -9.6257 2.9013 160 160 160
28.4271 -9.2189 3.4798 160 160 160
29.1389 -9.4581 4.2894 160 160 160
0.0040 -0.1149 -0.0032 160 160 160
0.0040 -0.1149 -0.0032 160 160 160
3.0110 -1.0849 -1.8781 160 160 160
0.0040 -0.1147 -0.0032 160 160 160
0.0040 -0.1147 -0.0032 160 160 160
3.2024 -1.1497 -1.6920 160 160 160
3.4121 -1.2189 -1.7000 160 160 160
3.6342 -1.2922 -1.7035 160 160 160
3.8426 -1.3605 -1.6900 160 160 160
4.1213 -1.4526 -1.6949 160 160 160
4.4144 -1.5495 -1.6925 160 160 160
4.7637 -1.6641 -1.6959 160 160 160
5.2479 -1.8237 -1.7257 160 160 160
6.1647 -2.1249 -1.8631 160 160 160
6.7610 -2.3207 -1.8658 160 160 160
7.4121 -2.5361 -1.8519 160 160 160
8.2346 -2.8082 -1.8461 160 160 160
9.3871 -3.1889 -1.8660 160 160 160
10.9380 -3.6443 -1.8937 160 160 160
11.8368 -3.9390 -1.7539 160 160 160
11.9644 -3.9825 -1.4740 160 160 160
11.9734 -3.9900 -1.1800 160 160 160
0.0040 -0.1147 -0.0032 160 160 160
0.0040 -0.1147 -0.0032 160 160 160
29.8911 -9.8199 -0.7402 160 160 160
28.3363 -9.3259 -0.0103 160 160 160
30.4910 -10.0323 0.7335 160 160 160
27.0909 -8.9367 1.3185 160 160 160
26.8940 -8.8829 1.9678 160 160 160
27.7716 -9.1797 2.7149 160 160 160
28.1835 -9.3196 3.4564 160 160 160
28.0569 -9.2891 4.1377 160 160 160
29.2190 -9.6804 5.0399 160 160 160
0.0040 -0.1147 -0.0032 160 160 160
3.0036 -1.1019 -1.8770 160 160 160
0.0040 -0.1145 -0.0032 160 160 160
0.0040 -0.1145 -0.0032 160 160 160
3.2064 -1.1717 -1.6974 160 160 160
3.4089 -1.2399 -1.7017 160 160 160
3.6343 -1.3151 -1.7067 160 160 160
3.8456 -1.3865 -1.6946 160 160 160
4.1221 -1.4797 -1.6985 160 160 160
4.4043 -1.5740 -1.6918 160 160 160
4.7419 -1.6878 -1.6914 160 160 160
5.2431 -1.8563 -1.7274 160 160 160
6.1567 -2.1613 -1.8642 160 160 160
6.7478 -2.3605 -1.8658 160 160 160
7.3999 -2.5791 -1.8523 160 160 160
8.2264 -2.8577 -1.8478 160 160 160
9.3767 -3.2451 -1.8674 160 160 160
10.9375 -3.7156 -1.8972 160 160 160
11.8070 -4.0042 -1.7528 160 160 160
11.9262 -4.0481 -1.4721 160 160 160
11.9407 -4.0575 -1.1790 160 160 160
0.0040 -0.1145 -0.0032 160 160 160
0.0040 -0.1145 -0.0032 160 160 160
0.0040 -0.1145 -0.0032 160 160 160
29.3953 -9.8573 -0.0105 160 160 160
31.0446 -10.4160 0.7484 160 160 160
27.1292 -9.1270 1.3230 160 160 160
26.9662 -9.0780 1.9769 160 160 160
27.5470 -9.2818 2.6981 160 160 160
27.6498 -9.3267 3.3975 160 160 160
28.0149 -9.4537 4.1394 160 160 160
29.1878 -9.8561 5.0441 160 160 160
0.0040 -0.1145 -0.0032 160 160 160
2.9978 -1.1189 -1.8770 160 160 160
3.0746 -1.1458 -1.8242 160 160 160
3.0818 -1.1489 -1.7307 160 160 160
3.1985 -1.1893 -1.6965 160 160 160
3.4112 -1.2616 -1.7060 160 160 160
3.6239 -1.3346 -1.7051 160 160 160
3.8350 -1.4065 -1.6931 160 160 160
4.0986 -1.4970 -1.6920 160 160 160
4.3997 -1.5995 -1.6932 160 160 160
4.7420 -1.7170 -1.6946 160 160 160
5.2278 -1.8834 -1.7256 160 160 160
6.1507 -2.1972 -1.8658 160 160 160
6.7370 -2.3985 -1.8663 160 160 160
7.3878 -2.6207 -1.8528 160 160 160
8.2165 -2.9052 -1.8490 160 160 160
9.3764 -3.3011 -1.8708 160 160 160
10.9241 -3.7807 -1.8985 160 160 160
11.7770 -4.0693 -1.7516 160 160 160
11.9015 -4.1157 -1.4719 160 160 160
11.9186 -4.1238 -1.1790 160 160 160
12.6205 -4.3649 -0.9373 160 160 160
52.6981 -17.8880 -2.6097 160 160 160
27.0134 -9.2297 -0.6717 160 160 160
28.1261 -9.6161 -0.0102 160 160 160
30.7765 -10.5176 0.7433 160 160 160
30.8728 -10.5621 1.5089 160 160 160
27.4883 -9.4219 2.0190 160 160 160
27.0881 -9.2969 2.6581 160 160 160
27.1632 -9.3276 3.3438 160 160 160
27.8124 -9.5586 4.1172 160 160 160
28.4919 -9.7949 4.9328 160 160 160
0.0040 -0.1142 -0.0032 160 160 160
2.9956 -1.1359 -1.8791 160 160 160
3.0706 -1.1627 -1.8252 160 160 160
3.0810 -1.1675 -1.7335 160 160 160
3.1825 -1.2029 -1.6911 160 160 160
3.4167 -1.2844 -1.7120 160 160 160
3.6222 -1.3563 -1.7075 160 160 160
3.8309 -1.4295 -1.6946 160 160 160
4.0961 -1.5214 -1.6942 160 160 160
4.3910 -1.6245 -1.6932 160 160 160
4.7255 -1.7416 -1.6920 160 160 160
5.2284 -1.9169 -1.7292 160 160 160
6.1495 -2.2360 -1.8691 160 160 160
6.7329 -2.4401 -1.8688 160 160 160
7.3802 -2.6667 -1.8546 160 160 160
8.2128 -2.9580 -1.8519 160 160 160
9.3666 -3.3596 -1.8726 160 160 160
10.9116 -3.8419 -1.8998 160 160 160
11.7491 -4.1327 -1.7508 160 160 160
11.9116 -4.1906 -1.4758 160 160 160
11.8828 -4.1854 -1.1777 160 160 160
12.5966 -4.4349 -0.9373 160 160 160
52.6530 -18.2001 -2.6123 160 160 160
26.7825 -9.3182 -0.6673 160 160 160
31.2461 -10.8645 -0.0109 160 160 160
30.4231 -10.5932 0.7362 160 160 160
30.8953 -10.7679 1.5130 160 160 160
29.5580 -10.3124 2.1756 160 160 160
26.7921 -9.3683 2.6342 160 160 160
27.3841 -9.5835 3.3779 160 160 160
27.7372 -9.7164 4.1145 160 160 160
28.0517 -9.8308 4.8664 160 160 160
0.0040 -0.1140 -0.0032 160 160 160
2.9893 -1.1539 -1.8790 160 160 160
3.0740 -1.1846 -1.8311 160 160 160
3.0797 -1.1872 -1.7363 160 160 160
3.1893 -1.2267 -1.6983 160 160 160
3.4043 -1.3032 -1.7094 160 160 160
3.6079 -1.3751 -1.7043 160 160 160
3.8196 -1.4507 -1.6931 160 160 160
4.0857 -1.5455 -1.6934 160 160 160
4.3749 -1.6478 -1.6904 160 160 160
4.7086 -1.7668 -1.6895 160 160 160
5.2248 -1.9502 -1.7316 160 160 160
6.1404 -2.2734 -1.8702 160 160 160
6.7263 -2.4822 -1.8708 160 160 160
7.3691 -2.7101 -1.8555 160 160 160
8.2110 -3.0102 -1.8552 160 160 160
9.3583 -3.4187 -1.8748 160 160 160
10.8979 -3.9114 -1.9014 160 160 160
11.7213 -4.2007 -1.7502 160 160 160
11.8472 -4.2492 -1.4709 160 160 160
11.8578 -4.2575 -1.1777 160 160 160
0.0040 -0.1138 -0.0032 160 160 160
0.0040 -0.1138 -0.0032 160 160 160
26.7580 -9.4924 -0.6680 160 160 160
30.8440 -10.9307 -0.0108 160 160 160
30.7906 -10.9240 0.7467 160 160 160
30.9748 -11.0008 1.5201 160 160 160
30.6847 -10.9048 2.2634 160 160 160
26.7461 -9.5300 2.6352 160 160 160
27.4417 -9.7856 3.3921 160 160 160
28.1223 -10.0310 4.1801 160 160 160
28.1221 -10.0419 4.8888 160 160 160
28.5053 -10.1884 5.6850 160 160 160
2.9865 -1.1720 -1.8811 160 160 160
3.0694 -1.2026 -1.8320 160 160 160
3.0752 -1.2053 -1.7372 160 160 160
3.1812 -1.2442 -1.6974 160 160 160
3.3991 -1.3231 -1.7102 160 160 160
3.6072 -1.3986 -1.7075 160 160 160
3.8101 -1.4717 -1.6923 160 160 160
4.0756 -1.5681 -1.6927 160 160 160
4.3533 -1.6690 -1.6856 160 160 160
4.7008 -1.7942 -1.6901 160 160 160
5.1998 -1.9748 -1.7268 160 160 160
6.1348 -2.3121 -1.8724 160 160 160
6.7144 -2.5213 -1.8713 160 160 160
7.3682 -2.7588 -1.8592 160 160 160
8.1919 -3.0578 -1.8548 160 160 160
9.3460 -3.4765 -1.8763 160 160 160
10.8889 -3.9784 -1.9037 160 160 160
11.7006 -4.2711 -1.7508 160 160 160
11.8101 -4.3124 -1.4693 160 160 160
11.8225 -4.3214 -1.1766 160 160 160
0.0040 -0.1135 -0.0032 160 160 160
0.0040 -0.1135 -0.0032 160 160 160
27.0256 -9.7608 -0.6760 160 160 160
29.3989 -10.6196 -0.0105 160 160 160
31.0988 -11.2333 0.7558 160 160 160
30.8722 -11.1643 1.5181 160 160 160
0.0040 -0.1135 -0.0032 160 160 160
26.5980 -9.6550 2.6261 160 160 160
27.4549 -9.9678 3.4007 160 160 160
27.0677 -9.8395 4.0317 160 160 160
28.2132 -10.2622 4.9151 160 160 160
0.0040 -0.1135 -0.0032 160 160 160
2.9721 -1.1865 -1.8760 160 160 160
3.0662 -1.2217 -1.8340 160 160 160
3.0753 -1.2256 -1.7410 160 160 160
3.1828 -1.2658 -1.7018 160 160 160
3.3955 -1.3436 -1.7119 160 160 160
3.6049 -1.4210 -1.7099 160 160 160
3.8055 -1.4953 -1.6938 160 160 160
4.0654 -1.5906 -1.6919 160 160 160
4.3549 -1.6976 -1.6897 160 160 160
4.6875 -1.8196 -1.6888 160 160 160
5.1800 -2.0011 -1.7238 160 160 160
6.1256 -2.3484 -1.8735 160 160 160
6.7041 -2.5609 -1.8723 160 160 160
7.3529 -2.8008 -1.8592 160 160 160
8.1753 -3.1032 -1.8548 160 160 160
9.3308 -3.5297 -1.8770 160 160 160
10.8695 -4.0439 -1.9043 160 160 160
11.6691 -4.3354 -1.7496 160 160 160
11.7831 -4.3813 -1.4690 160 160 160
11.8011 -4.3925 -1.1769 160 160 160
0.0040 -0.1133 -0.0032 160 160 160
0.0040 -0.1133 -0.0032 160 160 160
27.0580 -9.9479 -0.6782 160 160 160
27.4868 -10.1146 -0.0100 160 160 160
30.1062 -11.0797 0.7332 160 160 160
30.8307 -11.3496 1.5193 160 160 160
30.3879 -11.2002 2.2510 160 160 160
22.9378 -8.4862 2.2689 160 160 160
27.3119 -10.0939 3.3900 160 160 160
27.1043 -10.0287 4.0456 160 160 160
28.7807 -10.6477 5.0242 160 160 160
28.1661 -10.4338 5.6407 160 160 160
2.9628 -1.2016 -1.8739 160 160 160
3.0681 -1.2416 -1.8389 160 160 160
3.0756 -1.2449 -1.7447 160 160 160
3.1763 -1.2833 -1.7018 160 160 160
3.3886 -1.3623 -1.7119 160 160 160
3.6010 -1.4421 -1.7116 160 160 160
3.8063 -1.5194 -1.6977 160 160 160
4.0693 -1.6175 -1.6970 160 160 160
4.3513 -1.7236 -1.6918 160 160 160
4.6833 -1.8475 -1.6907 160 160 160
5.1623 -2.0271 -1.7214 160 160 160
5.2589 -2.0650 -1.6120 160 160 160
6.6939 -2.5994 -1.8733 160 160 160
7.3487 -2.8456 -1.8619 160 160 160
8.1658 -3.1512 -1.8564 160 160 160
9.3152 -3.5828 -1.8777 160 160 160
10.8548 -4.1069 -1.9056 160 160 160
11.6435 -4.3995 -1.7493 160 160 160
11.7573 -4.4460 -1.4688 160 160 160
11.7733 -4.4566 -1.1765 160 160 160
12.4912 -4.7240 -0.9371 160 160 160
0.0040 -0.1130 -0.0032 160 160 160
26.6558 -9.9700 -0.6695 160 160 160
27.5075 -10.2959 -0.0100 160 160 160
30.6389 -11.4674 0.7478 160 160 160
23.2766 -8.7433 1.1486 160 160 160
30.3443 -11.3762 2.2524 160 160 160
22.8273 -8.5902 2.2626 160 160 160
22.3719 -8.4298 2.7819 160 160 160
23.5144 -8.8640 3.5166 160 160 160
28.4608 -10.7107 4.9786 160 160 160
28.0436 -10.5664 5.6278 160 160 160
2.9630 -1.2208 -1.8780 160 160 160
3.0649 -1.2602 -1.8408 160 160 160
3.0691 -1.2623 -1.7447 160 160 160
3.1812 -1.3057 -1.7081 160 160 160
3.3794 -1.3814 -1.7111 160 160 160
3.5896 -1.4618 -1.7099 160 160 160
3.7844 -1.5358 -1.6915 160 160 160
4.0569 -1.6400 -1.6956 160 160 160
4.3381 -1.7477 -1.6904 160 160 160
4.6640 -1.8716 -1.6875 160 160 160
5.1687 -2.0641 -1.7274 160 160 160
0.0040 -0.1128 -0.0032 160 160 160
6.6718 -2.6360 -1.8713 160 160 160
