ply
format ascii 1.0
element vertex 1374
property float x
property float y
property float z
property uchar red
property uchar green
property uchar blue
end_header
3.1662 -2.0852 -1.8952 160 160 160
3.3745 -2.2217 -1.9047 160 160 160
3.5974 -2.3670 -1.9101 160 160 160
3.8217 -2.5141 -1.9041 160 160 160
4.1040 -2.6992 -1.9120 160 160 160
4.4344 -2.9146 -1.9259 160 160 160
4.8113 -3.1617 -1.9403 160 160 160
5.2167 -3.4276 -1.9432 160 160 160
5.3379 -3.5078 -1.8275 160 160 160
5.7599 -3.7850 -1.8008 160 160 160
6.2300 -4.0925 -1.7631 160 160 160
6.9152 -4.5421 -1.7560 160 160 160
7.7707 -5.1033 -1.7495 160 160 160
8.8949 -5.7835 -1.7415 160 160 160
9.0817 -5.9064 -1.5214 160 160 160
9.0720 -5.9046 -1.2632 160 160 160
9.0537 -5.8972 -1.0078 160 160 160
9.0548 -5.9002 -0.7560 160 160 160
9.0934 -5.9297 -0.5070 160 160 160
9.0988 -5.9377 -0.2534 160 160 160
9.0969 -5.9387 -0.0016 160 160 160
9.0773 -5.9305 0.2496 160 160 160
9.0696 -5.9299 0.5028 160 160 160
9.0713 -5.9333 0.7549 160 160 160
9.0488 -5.9231 1.0055 160 160 160
9.0494 -5.9281 1.2611 160 160 160
9.0181 -5.9099 1.5109 160 160 160
9.0239 -5.9181 1.7681 160 160 160
9.0242 -5.9228 2.0284 160 160 160
0.5083 -0.3686 -0.3618 160 160 160
2.7894 -1.8621 -1.8748 160 160 160
2.9680 -1.9798 -1.8880 160 160 160
3.1544 -2.1034 -1.8952 160 160 160
3.3604 -2.2400 -1.9038 160 160 160
3.5732 -2.3805 -1.9044 160 160 160
3.8104 -2.5380 -1.9057 160 160 160
4.0871 -2.7217 -1.9113 160 160 160
4.4193 -2.9411 -1.9266 160 160 160
4.7948 -3.1903 -1.9409 160 160 160
5.1970 -3.4575 -1.9432 160 160 160
5.3371 -3.5510 -1.8341 160 160 160
5.7463 -3.8235 -1.8033 160 160 160
6.2163 -4.1347 -1.7659 160 160 160
6.8989 -4.5882 -1.7585 160 160 160
7.7529 -5.1556 -1.7521 160 160 160
8.8814 -5.8475 -1.7454 160 160 160
9.0809 -5.9802 -1.5270 160 160 160
9.0746 -5.9807 -1.2683 160 160 160
9.0531 -5.9710 -1.0116 160 160 160
9.0509 -5.9719 -0.7585 160 160 160
9.0928 -6.0039 -0.5088 160 160 160
9.0881 -6.0053 -0.2541 160 160 160
9.0979 -6.0139 -0.0016 160 160 160
9.0650 -5.9969 0.2502 160 160 160
9.0672 -6.0028 0.5045 160 160 160
9.0422 -5.9887 0.7554 160 160 160
9.0512 -5.9991 1.0096 160 160 160
9.0469 -6.0008 1.2656 160 160 160
9.0139 -5.9813 1.5159 160 160 160
9.0211 -5.9905 1.7742 160 160 160
9.0230 -5.9962 2.0358 160 160 160
0.5120 -0.3752 -0.3659 160 160 160
2.7788 -1.8781 -1.8748 160 160 160
2.9553 -1.9958 -1.8871 160 160 160
3.1424 -2.1214 -1.8952 160 160 160
3.3430 -2.2562 -1.9012 160 160 160
3.5703 -2.4080 -1.9101 160 160 160
3.7990 -2.5619 -1.9072 160 160 160
4.0778 -2.7493 -1.9142 160 160 160
4.4072 -2.9696 -1.9286 160 160 160
4.7781 -3.2189 -1.9416 160 160 160
5.1852 -3.4926 -1.9462 160 160 160
5.3295 -3.5902 -1.8385 160 160 160
5.7260 -3.8574 -1.8038 160 160 160
6.2007 -4.1758 -1.7682 160 160 160
6.8791 -4.6322 -1.7602 160 160 160
7.7380 -5.2099 -1.7554 160 160 160
8.8609 -5.9072 -1.7480 160 160 160
9.0813 -6.0554 -1.5328 160 160 160
9.0733 -6.0547 -1.2730 160 160 160
9.0486 -6.0428 -1.0149 160 160 160
9.0514 -6.0470 -0.7614 160 160 160
9.0898 -6.0770 -0.5106 160 160 160
9.0918 -6.0829 -0.2551 160 160 160
9.0949 -6.0873 -0.0016 160 160 160
9.0637 -6.0711 0.2512 160 160 160
9.0443 -6.0626 0.5052 160 160 160
9.0360 -6.0594 0.7577 160 160 160
9.0499 -6.0732 1.0133 160 160 160
9.0355 -6.0681 1.2688 160 160 160
9.0141 -6.0561 1.5218 160 160 160
9.0212 -6.0654 1.7810 160 160 160
9.0228 -6.0710 2.0436 160 160 160
0.5143 -0.3809 -0.3689 160 160 160
2.7710 -1.8959 -1.8768 160 160 160
2.9498 -2.0165 -1.8908 160 160 160
3.1303 -2.1394 -1.8952 160 160 160
3.3378 -2.2805 -1.9055 160 160 160
3.5607 -2.4322 -1.9125 160 160 160
3.7844 -2.5836 -1.9072 160 160 160
4.0559 -2.7685 -1.9113 160 160 160
4.3851 -2.9924 -1.9265 160 160 160
4.7613 -3.2473 -1.9422 160 160 160
5.1667 -3.5234 -1.9468 160 160 160
5.3338 -3.6388 -1.8473 160 160 160
5.7151 -3.8979 -1.8073 160 160 160
6.1776 -4.2135 -1.7686 160 160 160
6.8647 -4.6816 -1.7635 160 160 160
7.7233 -5.2666 -1.7591 160 160 160
8.8385 -5.9657 -1.7503 160 160 160
9.0782 -6.1312 -1.5384 160 160 160
9.0732 -6.1300 -1.2778 160 160 160
9.0486 -6.1181 -1.0188 160 160 160
9.0487 -6.1227 -0.7642 160 160 160
9.0898 -6.1527 -0.5126 160 160 160
9.0901 -6.1574 -0.2561 160 160 160
9.0788 -6.1544 -0.0016 160 160 160
9.0371 -6.1287 0.2514 160 160 160
9.0409 -6.1357 0.5070 160 160 160
9.0282 -6.1318 0.7601 160 160 160
9.0437 -6.1468 1.0167 160 160 160
9.0418 -6.1479 1.2746 160 160 160
9.0127 -6.1328 1.5276 160 160 160
9.0179 -6.1408 1.7875 160 160 160
9.0302 -6.1515 2.0532 160 160 160
0.5066 -0.3801 -0.3649 160 160 160
2.7570 -1.9102 -1.8748 160 160 160
2.9307 -2.0290 -1.8861 160 160 160
3.1252 -2.1628 -1.8996 160 160 160
3.3218 -2.2976 -1.9038 160 160 160
3.5393 -2.4474 -1.9084 160 160 160
3.7723 -2.6081 -1.9087 160 160 160
4.0492 -2.7979 -1.9156 160 160 160
4.3664 -3.0165 -1.9259 160 160 160
4.7474 -3.2778 -1.9441 160 160 160
5.1529 -3.5573 -1.9491 160 160 160
5.3289 -3.6803 -1.8528 160 160 160
5.6976 -3.9339 -1.8088 160 160 160
6.1631 -4.2556 -1.7714 160 160 160
6.8450 -4.7242 -1.7651 160 160 160
7.7103 -5.3207 -1.7628 160 160 160
8.8227 -6.0313 -1.7541 160 160 160
9.0708 -6.2022 -1.5431 160 160 160
9.0664 -6.2038 -1.2820 160 160 160
9.0518 -6.1985 -1.0232 160 160 160
9.0514 -6.2005 -0.7674 160 160 160
9.0632 -6.2131 -0.5131 160 160 160
9.0645 -6.2163 -0.2563 160 160 160
9.0665 -6.2223 -0.0016 160 160 160
9.0371 -6.2069 0.2524 160 160 160
9.0386 -6.2102 0.5088 160 160 160
9.0308 -6.2095 0.7633 160 160 160
9.0488 -6.2241 1.0211 160 160 160
9.0343 -6.2188 1.2786 160 160 160
9.0052 -6.2034 1.5324 160 160 160
9.0212 -6.2167 1.7950 160 160 160
9.0986 -6.2744 2.0769 160 160 160
0.5132 -0.3886 -0.3710 160 160 160
2.7523 -1.9295 -1.8787 160 160 160
2.9239 -2.0482 -1.8889 160 160 160
3.1089 -2.1772 -1.8969 160 160 160
3.3073 -2.3155 -1.9029 160 160 160
3.5288 -2.4691 -1.9101 160 160 160
3.7609 -2.6311 -1.9103 160 160 160
4.0317 -2.8201 -1.9149 160 160 160
4.3528 -3.0430 -1.9272 160 160 160
4.7302 -3.3061 -1.9447 160 160 160
5.1310 -3.5858 -1.9485 160 160 160
5.3274 -3.7230 -1.8594 160 160 160
5.6766 -3.9677 -1.8093 160 160 160
6.1538 -4.2998 -1.7756 160 160 160
6.8244 -4.7679 -1.7668 160 160 160
7.6926 -5.3739 -1.7657 160 160 160
8.8021 -6.0894 -1.7567 160 160 160
9.0721 -6.2773 -1.5492 160 160 160
9.0662 -6.2779 -1.2869 160 160 160
9.0599 -6.2782 -1.0281 160 160 160
9.0464 -6.2713 -0.7699 160 160 160
9.0647 -6.2885 -0.5151 160 160 160
9.0634 -6.2923 -0.2573 160 160 160
9.0647 -6.2955 -0.0016 160 160 160
9.0486 -6.2891 0.2538 160 160 160
9.0374 -6.2860 0.5108 160 160 160
9.0307 -6.2836 0.7663 160 160 160
9.0392 -6.2941 1.0241 160 160 160
9.0345 -6.2955 1.2837 160 160 160
9.0096 -6.2806 1.5390 160 160 160
9.1071 -6.3528 1.8193 160 160 160
9.0981 -6.3513 2.0851 160 160 160
0.5097 -0.3906 -0.3700 160 160 160
2.7428 -1.9463 -1.8797 160 160 160
2.9180 -2.0690 -1.8927 160 160 160
3.0935 -2.1929 -1.8951 160 160 160
3.2940 -2.3344 -1.9029 160 160 160
3.5127 -2.4888 -1.9092 160 160 160
3.7458 -2.6526 -1.9103 160 160 160
4.0188 -2.8454 -1.9164 160 160 160
4.3410 -3.0729 -1.9299 160 160 160
4.7113 -3.3332 -1.9447 160 160 160
5.1183 -3.6207 -1.9515 160 160 160
5.3290 -3.7711 -1.8677 160 160 160
5.6619 -4.0058 -1.8119 160 160 160
6.1253 -4.3340 -1.7746 160 160 160
6.8026 -4.8127 -1.7685 160 160 160
7.6769 -5.4307 -1.7694 160 160 160
8.7850 -6.1523 -1.7603 160 160 160
9.0723 -6.3571 -1.5556 160 160 160
9.0644 -6.3538 -1.2917 160 160 160
9.0483 -6.3474 -1.0308 160 160 160
9.0469 -6.3511 -0.7731 160 160 160
9.0613 -6.3634 -0.5170 160 160 160
9.0616 -6.3683 -0.2583 160 160 160
9.0634 -6.3743 -0.0016 160 160 160
9.0452 -6.3639 0.2547 160 160 160
9.0356 -6.3619 0.5128 160 160 160
9.0309 -6.3633 0.7695 160 160 160
9.0427 -6.3762 1.0288 160 160 160
9.0357 -6.3736 1.2891 160 160 160
9.0405 -6.3817 1.5507 160 160 160
9.0984 -6.4271 1.8252 160 160 160
9.0969 -6.4284 2.0932 160 160 160
0.5047 -0.3915 -0.3679 160 160 160
2.7385 -1.9674 -1.8846 160 160 160
2.9016 -2.0831 -1.8899 160 160 160
3.0822 -2.2122 -1.8960 160 160 160
3.2847 -2.3569 -1.9055 160 160 160
3.5015 -2.5111 -1.9109 160 160 160
3.7348 -2.6780 -1.9126 160 160 160
4.0020 -2.8691 -1.9164 160 160 160
4.3220 -3.0967 -1.9293 160 160 160
4.6932 -3.3621 -1.9454 160 160 160
5.0922 -3.6476 -1.9497 160 160 160
5.3199 -3.8105 -1.8721 160 160 160
5.6461 -4.0448 -1.8144 160 160 160
6.1115 -4.3770 -1.7778 160 160 160
6.7861 -4.8597 -1.7714 160 160 160
7.6632 -5.4872 -1.7735 160 160 160
8.7533 -6.2076 -1.7613 160 160 160
9.0714 -6.4343 -1.5617 160 160 160
9.0591 -6.4303 -1.2964 160 160 160
9.0481 -6.4272 -1.0351 160 160 160
9.0397 -6.4237 -0.7756 160 160 160
9.0579 -6.4412 -0.5190 160 160 160
9.0581 -6.4462 -0.2592 160 160 160
9.0594 -6.4495 -0.0016 160 160 160
9.0336 -6.4359 0.2554 160 160 160
9.0305 -6.4384 0.5146 160 160 160
9.0253 -6.4370 0.7721 160 160 160
9.0352 -6.4488 1.0321 160 160 160
9.0351 -6.4535 1.2944 160 160 160
9.0958 -6.4989 1.5666 160 160 160
9.0936 -6.5022 1.8317 160 160 160
9.0972 -6.5095 2.1021 160 160 160
0.5168 -0.4043 -0.3781 160 160 160
2.7188 -1.9770 -1.8787 160 160 160
2.8926 -2.1018 -1.8917 160 160 160
3.0725 -2.2319 -1.8978 160 160 160
3.2713 -2.3758 -1.9055 160 160 160
3.4873 -2.5312 -1.9109 160 160 160
3.7165 -2.6972 -1.9110 160 160 160
3.9962 -2.8996 -1.9214 160 160 160
4.3073 -3.1236 -1.9306 160 160 160
4.6755 -3.3901 -1.9460 160 160 160
5.0775 -3.6813 -1.9521 160 160 160
5.3216 -3.8579 -1.8804 160 160 160
5.6276 -4.0806 -1.8159 160 160 160
6.0848 -4.4108 -1.7774 160 160 160
6.7630 -4.9020 -1.7726 160 160 160
7.6541 -5.5473 -1.7787 160 160 160
8.7353 -6.2705 -1.7648 160 160 160
9.0682 -6.5104 -1.5676 160 160 160
9.0625 -6.5112 -1.3022 160 160 160
9.0435 -6.5024 -1.0388 160 160 160
9.0417 -6.5034 -0.7790 160 160 160
9.0582 -6.5199 -0.5211 160 160 160
9.0552 -6.5226 -0.2602 160 160 160
9.0582 -6.5271 -0.0016 160 160 160
9.0404 -6.5191 0.2567 160 160 160
9.0308 -6.5170 0.5168 160 160 160
9.0272 -6.5168 0.7755 160 160 160
9.0354 -6.5274 1.0364 160 160 160
9.1206 -6.5935 1.3121 160 160 160
9.0922 -6.5755 1.5725 160 160 160
9.0899 -6.5786 1.8385 160 160 160
9.0932 -6.5858 2.1099 160 160 160
0.5076 -0.4022 -0.3730 160 160 160
2.7017 -1.9889 -1.8748 160 160 160
2.8803 -2.1188 -1.8917 160 160 160
3.0622 -2.2521 -1.8996 160 160 160
3.2622 -2.3977 -1.9080 160 160 160
3.4739 -2.5528 -1.9117 160 160 160
3.6992 -2.7181 -1.9102 160 160 160
3.9736 -2.9181 -1.9185 160 160 160
4.2920 -3.1513 -1.9320 160 160 160
4.6592 -3.4191 -1.9473 160 160 160
5.0626 -3.7148 -1.9545 160 160 160
5.3205 -3.9051 -1.8881 160 160 160
5.6089 -4.1163 -1.8174 160 160 160
6.0619 -4.4490 -1.7783 160 160 160
6.7475 -4.9501 -1.7759 160 160 160
7.6174 -5.5877 -1.7776 160 160 160
8.7109 -6.3313 -1.7674 160 160 160
9.0665 -6.5908 -1.5740 160 160 160
9.0578 -6.5892 -1.3070 160 160 160
9.0405 -6.5815 -1.0429 160 160 160
9.0436 -6.5862 -0.7824 160 160 160
9.0503 -6.5959 -0.5229 160 160 160
9.0549 -6.6016 -0.2613 160 160 160
9.0550 -6.6065 -0.0016 160 160 160
9.0261 -6.5902 0.2574 160 160 160
9.0289 -6.5946 0.5188 160 160 160
9.0289 -6.5995 0.7790 160 160 160
9.1298 -6.6753 1.0516 160 160 160
9.1164 -6.6703 1.3170 160 160 160
9.0932 -6.6584 1.5794 160 160 160
9.0967 -6.6632 1.8476 160 160 160
9.0935 -6.6658 2.1188 160 160 160
0.5014 -0.4019 -0.3699 160 160 160
2.6935 -2.0060 -1.8767 160 160 160
2.8715 -2.1369 -1.8936 160 160 160
3.0470 -2.2670 -1.8978 160 160 160
3.2442 -2.4131 -1.9055 160 160 160
3.4657 -2.5764 -1.9149 160 160 160
3.6886 -2.7419 -1.9125 160 160 160
3.9630 -2.9452 -1.9214 160 160 160
4.2730 -3.1740 -1.9313 160 160 160
4.6366 -3.4436 -1.9460 160 160 160
5.0398 -3.7427 -1.9539 160 160 160
5.3128 -3.9449 -1.8930 160 160 160
5.5930 -4.1541 -1.8199 160 160 160
6.0434 -4.4874 -1.7801 160 160 160
6.7285 -4.9957 -1.7784 160 160 160
7.5964 -5.6396 -1.7802 160 160 160
8.6899 -6.3903 -1.7703 160 160 160
9.0665 -6.6681 -1.5804 160 160 160
9.0578 -6.6666 -1.3124 160 160 160
9.0408 -6.6589 -1.0472 160 160 160
9.0438 -6.6636 -0.7856 160 160 160
9.0554 -6.6769 -0.5253 160 160 160
9.0556 -6.6819 -0.2624 160 160 160
9.0456 -6.6769 -0.0016 160 160 160
9.0296 -6.6701 0.2586 160 160 160
9.0988 -6.7258 0.5251 160 160 160
9.1239 -6.7467 0.7904 160 160 160
9.1348 -6.7595 1.0567 160 160 160
9.1164 -6.7509 1.3225 160 160 160
9.0864 -6.7313 1.5847 160 160 160
9.0902 -6.7390 1.8541 160 160 160
9.0963 -6.7484 2.1284 160 160 160
0.4978 -0.4036 -0.3689 160 160 160
0.0001 -0.0354 -0.0016 160 160 160
2.8622 -2.1554 -1.8955 160 160 160
3.0370 -2.2865 -1.8996 160 160 160
3.2334 -2.4339 -1.9072 160 160 160
3.4520 -2.5980 -1.9157 160 160 160
3.6759 -2.7652 -1.9141 160 160 160
3.9446 -2.9668 -1.9207 160 160 160
4.2573 -3.2015 -1.9327 160 160 160
4.6199 -3.4724 -1.9473 160 160 160
5.0261 -3.7774 -1.9569 160 160 160
5.3172 -3.9970 -1.9029 160 160 160
5.5786 -4.1931 -1.8230 160 160 160
6.0325 -4.5347 -1.7847 160 160 160
6.7099 -5.0437 -1.7813 160 160 160
7.5756 -5.6939 -1.7831 160 160 160
8.6707 -6.4531 -1.7739 160 160 160
9.0620 -6.7477 -1.5865 160 160 160
9.0578 -6.7470 -1.3179 160 160 160
9.0488 -6.7452 -1.0525 160 160 160
9.0364 -6.7409 -0.7884 160 160 160
9.0539 -6.7562 -0.5274 160 160 160
9.0557 -6.7625 -0.2635 160 160 160
9.0911 -6.7937 -0.0016 160 160 160
9.1324 -6.8269 0.2627 160 160 160
9.1291 -6.8293 0.5291 160 160 160
9.1223 -6.8292 0.7938 160 160 160
9.1202 -6.8326 1.0596 160 160 160
9.1110 -6.8282 1.3274 160 160 160
9.0862 -6.8146 1.5917 160 160 160
9.0850 -6.8187 1.8612 160 160 160
9.0906 -6.8252 2.1362 160 160 160
0.4901 -0.4024 -0.3648 160 160 160
2.6800 -2.0445 -1.8836 160 160 160
2.8538 -2.1755 -1.8983 160 160 160
3.0236 -2.3045 -1.8996 160 160 160
3.2310 -2.4610 -1.9140 160 160 160
3.4313 -2.6133 -1.9125 160 160 160
3.6582 -2.7858 -1.9133 160 160 160
3.9306 -2.9917 -1.9222 160 160 160
4.2390 -3.2258 -1.9327 160 160 160
4.6016 -3.5000 -1.9479 160 160 160
5.0029 -3.8050 -1.9563 160 160 160
5.3281 -4.0529 -1.9151 160 160 160
5.5561 -4.2263 -1.8235 160 160 160
6.0189 -4.5787 -1.7884 160 160 160
6.6881 -5.0857 -1.7830 160 160 160
7.5548 -5.7443 -1.7857 160 160 160
8.6450 -6.5138 -1.7765 160 160 160
9.1072 -6.8626 -1.6012 160 160 160
9.1021 -6.8637 -1.3302 160 160 160
9.0789 -6.8513 -1.0607 160 160 160
9.1428 -6.9017 -0.8011 160 160 160
9.1624 -6.9214 -0.5361 160 160 160
9.1670 -6.9274 -0.2678 160 160 160
9.1544 -6.9229 -0.0016 160 160 160
9.1271 -6.9073 0.2637 160 160 160
9.1264 -6.9093 0.5313 160 160 160
9.1213 -6.9104 0.7972 160 160 160
9.1187 -6.9109 1.0639 160 160 160
9.1098 -6.9092 1.3330 160 160 160
9.0834 -6.8942 1.5981 160 160 160
9.0879 -6.9001 1.8696 160 160 160
9.0874 -6.9046 2.1447 160 160 160
0.4867 -0.4040 -0.3638 160 160 160
2.6771 -2.0656 -1.8895 160 160 160
2.8404 -2.1903 -1.8973 160 160 160
3.0122 -2.3223 -1.9005 160 160 160
3.2055 -2.4708 -1.9072 160 160 160
3.4178 -2.6340 -1.9133 160 160 160
3.6457 -2.8083 -1.9148 160 160 160
3.9150 -3.0154 -1.9229 160 160 160
4.2250 -3.2536 -1.9347 160 160 160
4.5830 -3.5276 -1.9486 160 160 160
4.9886 -3.8394 -1.9592 160 160 160
5.3247 -4.0986 -1.9222 160 160 160
5.5441 -4.2675 -1.8275 160 160 160
6.0035 -4.6215 -1.7916 160 160 160
6.6720 -5.1359 -1.7867 160 160 160
7.5271 -5.7938 -1.7872 160 160 160
8.6182 -6.5691 -1.7784 160 160 160
9.1040 -6.9424 -1.6076 160 160 160
9.0986 -6.9408 -1.3353 160 160 160
9.0804 -6.9319 -1.0654 160 160 160
9.1634 -7.0001 -0.8064 160 160 160
9.1604 -7.0002 -0.5382 160 160 160
9.1622 -7.0066 -0.2688 160 160 160
9.1447 -6.9984 -0.0016 160 160 160
9.1268 -6.9872 0.2648 160 160 160
9.1248 -6.9908 0.5335 160 160 160
9.1228 -6.9942 0.8008 160 160 160
9.1189 -6.9962 1.0687 160 160 160
9.1159 -6.9965 1.3398 160 160 160
9.0815 -6.9752 1.6048 160 160 160
9.0831 -6.9814 1.8771 160 160 160
9.0835 -6.9842 2.1532 160 160 160
0.4859 -0.4080 -0.3648 160 160 160
2.6691 -2.0846 -1.8924 160 160 160
2.8247 -2.2049 -1.8955 160 160 160
3.0043 -2.3444 -1.9041 160 160 160
3.1924 -2.4908 -1.9080 160 160 160
3.4116 -2.6603 -1.9181 160 160 160
3.6306 -2.8309 -1.9156 160 160 160
3.9017 -3.0419 -1.9251 160 160 160
4.2094 -3.2801 -1.9361 160 160 160
4.5637 -3.5558 -1.9492 160 160 160
4.9645 -3.8677 -1.9586 160 160 160
5.3150 -4.1397 -1.9272 160 160 160
5.5189 -4.3003 -1.8275 160 160 160
5.9862 -4.6630 -1.7944 160 160 160
6.6503 -5.1802 -1.7888 160 160 160
7.5078 -5.8478 -1.7905 160 160 160
8.5902 -6.6284 -1.7807 160 160 160
9.1049 -7.0260 -1.6148 160 160 160
9.0953 -7.0236 -1.3409 160 160 160
9.0771 -7.0147 -1.0698 160 160 160
9.1770 -7.0940 -0.8111 160 160 160
9.1584 -7.0849 -0.5405 160 160 160
9.1539 -7.0864 -0.2698 160 160 160
9.1489 -7.0851 -0.0015 160 160 160
9.1281 -7.0741 0.2661 160 160 160
9.1229 -7.0752 0.5358 160 160 160
9.1189 -7.0746 0.8040 160 160 160
9.1181 -7.0791 1.0734 160 160 160
9.0964 -7.0673 1.3430 160 160 160
9.0805 -7.0576 1.6117 160 160 160
9.0803 -7.0625 1.8849 160 160 160
9.0841 -7.0705 2.1633 160 160 160
0.4850 -0.4117 -0.3658 160 160 160
2.6642 -2.1052 -1.8973 160 160 160
2.8094 -2.2188 -1.8936 160 160 160
2.9867 -2.3583 -1.9014 160 160 160
3.1811 -2.5113 -1.9097 160 160 160
3.3877 -2.6731 -1.9133 160 160 160
3.6101 -2.8483 -1.9133 160 160 160
3.8814 -3.0618 -1.9236 160 160 160
4.1936 -3.3065 -1.9374 160 160 160
4.5448 -3.5830 -1.9498 160 160 160
4.9499 -3.9020 -1.9616 160 160 160
5.3155 -4.1891 -1.9360 160 160 160
5.5050 -4.3403 -1.8311 160 160 160
5.9747 -4.7093 -1.7990 160 160 160
6.6236 -5.2207 -1.7896 160 160 160
7.4850 -5.8994 -1.7931 160 160 160
8.5708 -6.6923 -1.7845 160 160 160
9.1005 -7.1062 -1.6212 160 160 160
9.0909 -7.1039 -1.3462 160 160 160
9.0761 -7.0974 -1.0744 160 160 160
9.1661 -7.1699 -0.8138 160 160 160
9.1539 -7.1656 -0.5427 160 160 160
9.1558 -7.1721 -0.2711 160 160 160
9.1475 -7.1683 -0.0015 160 160 160
9.1252 -7.1560 0.2672 160 160 160
9.1216 -7.1583 0.5382 160 160 160
9.1143 -7.1551 0.8072 160 160 160
9.1150 -7.1608 1.0779 160 160 160
9.0636 -7.1256 1.3442 160 160 160
9.0821 -7.1427 1.6193 160 160 160
9.0786 -7.1451 1.8930 160 160 160
9.0821 -7.1529 2.1725 160 160 160
0.4843 -0.4154 -0.3669 160 160 160
2.6590 -2.1258 -1.9022 160 160 160
2.8037 -2.2403 -1.8983 160 160 160
2.9747 -2.3765 -1.9023 160 160 160
3.1639 -2.5273 -1.9080 160 160 160
3.3782 -2.6970 -1.9165 160 160 160
3.6025 -2.8758 -1.9179 160 160 160
3.8668 -3.0864 -1.9250 160 160 160
4.1791 -3.3339 -1.9395 160 160 160
4.5303 -3.6138 -1.9524 160 160 160
4.9336 -3.9352 -1.9640 160 160 160
5.3172 -4.2399 -1.9454 160 160 160
5.4922 -4.3814 -1.8351 160 160 160
5.9615 -4.7545 -1.8032 160 160 160
6.6105 -5.2721 -1.7942 160 160 160
7.4619 -5.9508 -1.7957 160 160 160
8.5370 -6.7450 -1.7855 160 160 160
9.1000 -7.1902 -1.6285 160 160 160
9.0938 -7.1904 -1.3527 160 160 160
9.0743 -7.1802 -1.0791 160 160 160
9.1639 -7.2534 -0.8173 160 160 160
9.1582 -7.2540 -0.5453 160 160 160
9.1506 -7.2531 -0.2721 160 160 160
9.1502 -7.2554 -0.0015 160 160 160
9.1233 -7.2394 0.2684 160 160 160
9.1149 -7.2379 0.5402 160 160 160
9.1139 -7.2396 0.8108 160 160 160
9.1144 -7.2452 1.0827 160 160 160
9.1020 -7.2405 1.3560 160 160 160
9.0720 -7.2194 1.6248 160 160 160
9.0731 -7.2253 1.9005 160 160 160
9.0794 -7.2355 2.1818 160 160 160
0.4781 -0.4150 -0.3638 160 160 160
0.4871 -0.4225 -0.3514 160 160 160
2.7895 -2.2552 -1.8973 160 160 160
2.9639 -2.3957 -1.9041 160 160 160
3.1594 -2.5532 -1.9140 160 160 160
3.3628 -2.7163 -1.9165 160 160 160
3.5861 -2.8964 -1.9179 160 160 160
3.8492 -3.1086 -1.9250 160 160 160
4.1571 -3.3556 -1.9381 160 160 160
4.5110 -3.6409 -1.9530 160 160 160
4.9095 -3.9623 -1.9634 160 160 160
5.3123 -4.2860 -1.9525 160 160 160
5.4822 -4.4250 -1.8402 160 160 160
5.9403 -4.7935 -1.8050 160 160 160
6.5894 -5.3173 -1.7967 160 160 160
7.4323 -5.9973 -1.7968 160 160 160
8.5136 -6.8063 -1.7887 160 160 160
9.1006 -7.2758 -1.6360 160 160 160
9.0882 -7.2710 -1.3580 160 160 160
9.0736 -7.2646 -1.0839 160 160 160
9.1628 -7.3383 -0.8209 160 160 160
9.1555 -7.3377 -0.5477 160 160 160
9.1479 -7.3368 -0.2733 160 160 160
9.1429 -7.3354 -0.0015 160 160 160
9.1175 -7.3204 0.2694 160 160 160
9.1154 -7.3239 0.5428 160 160 160
9.1096 -7.3218 0.8142 160 160 160
9.1070 -7.3249 1.0868 160 160 160
9.0976 -7.3226 1.3616 160 160 160
9.0784 -7.3098 1.6335 160 160 160
9.0777 -7.3144 1.9102 160 160 160
9.0715 -7.3146 2.1899 160 160 160
0.4691 -0.4122 -0.3587 160 160 160
0.4876 -0.4274 -0.3533 160 160 160
2.7781 -2.2723 -1.8983 160 160 160
2.9489 -2.4116 -1.9032 160 160 160
3.1476 -2.5735 -1.9157 160 160 160
3.3469 -2.7362 -1.9165 160 160 160
3.5710 -2.9181 -1.9187 160 160 160
3.8343 -3.1329 -1.9265 160 160 160
4.1372 -3.3801 -1.9381 160 160 160
4.4888 -3.6656 -1.9524 160 160 160
4.8913 -3.9940 -1.9652 160 160 160
5.3169 -4.3415 -1.9635 160 160 160
5.4613 -4.4601 -1.8417 160 160 160
5.9225 -4.8372 -1.8082 160 160 160
6.5762 -5.3711 -1.8016 160 160 160
7.4106 -6.0524 -1.8001 160 160 160
8.4837 -6.8626 -1.7907 160 160 160
9.0960 -7.3606 -1.6429 160 160 160
9.0928 -7.3606 -1.3650 160 160 160
9.0705 -7.3479 -1.0885 160 160 160
9.1349 -7.4050 -0.8223 160 160 160
9.1490 -7.4191 -0.5498 160 160 160
9.1477 -7.4233 -0.2745 160 160 160
9.1461 -7.4272 -0.0015 160 160 160
9.1158 -7.4054 0.2706 160 160 160
9.1183 -7.4126 0.5455 160 160 160
9.1080 -7.4095 0.8180 160 160 160
9.1038 -7.4113 1.0916 160 160 160
9.0955 -7.4073 1.3677 160 160 160
9.0720 -7.3934 1.6402 160 160 160
9.0757 -7.4017 1.9190 160 160 160
9.0753 -7.4039 2.2011 160 160 160
0.4749 -0.4214 -0.3648 160 160 160
0.4852 -0.4301 -0.3533 160 160 160
2.7634 -2.2875 -1.8973 160 160 160
2.9389 -2.4324 -1.9058 160 160 160
3.1246 -2.5847 -1.9106 160 160 160
3.3397 -2.7622 -1.9214 160 160 160
3.5567 -2.9415 -1.9202 160 160 160
3.8179 -3.1561 -1.9272 160 160 160
4.1208 -3.4062 -1.9395 160 160 160
4.4678 -3.6913 -1.9524 160 160 160
4.8669 -4.0207 -1.9646 160 160 160
5.3024 -4.3805 -1.9674 160 160 160
5.4327 -4.4889 -1.8407 160 160 160
5.9098 -4.8836 -1.8128 160 160 160
6.5598 -5.4188 -1.8054 160 160 160
7.3783 -6.0948 -1.8005 160 160 160
8.4568 -6.9240 -1.7936 160 160 160
9.0951 -7.4466 -1.6504 160 160 160
9.0907 -7.4482 -1.3712 160 160 160
9.0702 -7.4368 -1.0937 160 160 160
9.0629 -7.4334 -0.8196 160 160 160
9.1902 -7.5426 -0.5549 160 160 160
9.2196 -7.5694 -0.2780 160 160 160
9.1436 -7.5126 -0.0015 160 160 160
9.1153 -7.4947 0.2720 160 160 160
9.1158 -7.4978 0.5479 160 160 160
9.1055 -7.4947 0.8216 160 160 160
9.1102 -7.5011 1.0974 160 160 160
9.0975 -7.4960 1.3744 160 160 160
9.0708 -7.4794 1.6477 160 160 160
9.0771 -7.4872 1.9280 160 160 160
9.0721 -7.4884 2.2107 160 160 160
0.4661 -0.4185 -0.3597 160 160 160
0.4858 -0.4350 -0.3553 160 160 160
2.7521 -2.3040 -1.8982 160 160 160
2.9241 -2.4475 -1.9049 160 160 160
3.1172 -2.6078 -1.9148 160 160 160
3.3230 -2.7796 -1.9206 160 160 160
3.5375 -2.9589 -1.9187 160 160 160
3.8032 -3.1796 -1.9287 160 160 160
4.1049 -3.4314 -1.9408 160 160 160
4.4473 -3.7161 -1.9524 160 160 160
4.8489 -4.0514 -1.9663 160 160 160
5.2914 -4.4210 -1.9724 160 160 160
5.4182 -4.5277 -1.8442 160 160 160
5.8886 -4.9214 -1.8147 160 160 160
6.5342 -5.4590 -1.8066 160 160 160
7.3625 -6.1509 -1.8049 160 160 160
8.4334 -6.9835 -1.7968 160 160 160
9.0918 -7.5287 -1.6574 160 160 160
9.0874 -7.5304 -1.3770 160 160 160
9.0686 -7.5202 -1.0986 160 160 160
9.0630 -7.5182 -0.8234 160 160 160
9.1927 -7.6307 -0.5576 160 160 160
9.3284 -7.7455 -0.2825 160 160 160
0.0000 -0.0346 -0.0016 160 160 160
0.0000 -0.0346 -0.0016 160 160 160
0.0000 -0.0346 -0.0016 160 160 160
0.0000 -0.0346 -0.0016 160 160 160
0.0000 -0.0346 -0.0016 160 160 160
0.0000 -0.0346 -0.0016 160 160 160
9.0718 -7.5653 1.6555 160 160 160
9.0688 -7.5655 1.9352 160 160 160
9.0711 -7.5728 2.2207 160 160 160
0.4626 -0.4200 -0.3587 160 160 160
0.4928 -0.4455 -0.3621 160 160 160
2.7336 -2.3152 -1.8945 160 160 160
2.9101 -2.4642 -1.9049 160 160 160
3.1033 -2.6274 -1.9157 160 160 160
3.3095 -2.8015 -1.9222 160 160 160
3.5249 -2.9827 -1.9210 160 160 160
3.7859 -3.2032 -1.9294 160 160 160
4.0875 -3.4581 -1.9422 160 160 160
4.4327 -3.7484 -1.9556 160 160 160
4.8280 -4.0825 -1.9675 160 160 160
5.2667 -4.4535 -1.9729 160 160 160
5.4003 -4.5672 -1.8472 160 160 160
5.8685 -4.9637 -1.8174 160 160 160
6.5159 -5.5113 -1.8108 160 160 160
7.3281 -6.1983 -1.8056 160 160 160
8.4054 -7.0420 -1.7994 160 160 160
9.0897 -7.6179 -1.6652 160 160 160
9.0838 -7.6157 -1.3830 160 160 160
9.0666 -7.6066 -1.1036 160 160 160
9.0582 -7.6050 -0.8270 160 160 160
9.1995 -7.7257 -0.5607 160 160 160
9.3238 -7.8353 -0.2837 160 160 160
-0.0000 -0.0345 -0.0016 160 160 160
-0.0000 -0.0345 -0.0016 160 160 160
-0.0000 -0.0345 -0.0016 160 160 160
10.9940 -9.2553 1.0019 160 160 160
-0.0000 -0.0345 -0.0016 160 160 160
-0.0000 -0.0345 -0.0016 160 160 160
9.0648 -7.6508 1.6625 160 160 160
9.0649 -7.6562 1.9443 160 160 160
9.0669 -7.6605 2.2307 160 160 160
0.4642 -0.4260 -0.3617 160 160 160
0.4890 -0.4472 -0.3611 160 160 160
2.7241 -2.3347 -1.8973 160 160 160
2.8984 -2.4837 -1.9067 160 160 160
3.0823 -2.6409 -1.9123 160 160 160
3.2921 -2.8193 -1.9214 160 160 160
3.5102 -3.0059 -1.9225 160 160 160
3.7727 -3.2304 -1.9323 160 160 160
4.0706 -3.4840 -1.9435 160 160 160
4.4076 -3.7721 -1.9543 160 160 160
4.8024 -4.1098 -1.9669 160 160 160
5.2558 -4.4961 -1.9784 160 160 160
5.3763 -4.6016 -1.8482 160 160 160
5.8415 -4.9986 -1.8179 160 160 160
6.4857 -5.5499 -1.8112 160 160 160
7.3014 -6.2479 -1.8079 160 160 160
8.3773 -7.1032 -1.8023 160 160 160
9.0853 -7.7033 -1.6724 160 160 160
9.0796 -7.7039 -1.3893 160 160 160
9.0611 -7.6937 -1.1084 160 160 160
9.0540 -7.6905 -0.8306 160 160 160
9.1918 -7.8124 -0.5630 160 160 160
9.2713 -7.8852 -0.2835 160 160 160
0.0000 -0.0345 -0.0016 160 160 160
0.0000 -0.0345 -0.0016 160 160 160
13.9981 -11.9087 0.8546 160 160 160
9.6340 -8.2096 0.8821 160 160 160
9.6083 -8.1936 1.1745 160 160 160
9.1883 -7.8424 1.4086 160 160 160
9.0570 -7.7336 1.6691 160 160 160
9.0659 -7.7466 1.9540 160 160 160
9.0604 -7.7473 2.2403 160 160 160
0.4619 -0.4286 -0.3617 160 160 160
0.4867 -0.4500 -0.3611 160 160 160
2.7041 -2.3446 -1.8926 160 160 160
2.8829 -2.4991 -1.9058 160 160 160
3.0700 -2.6609 -1.9140 160 160 160
3.2802 -2.8417 -1.9238 160 160 160
3.4902 -3.0235 -1.9210 160 160 160
3.7486 -3.2471 -1.9294 160 160 160
4.0507 -3.5072 -1.9435 160 160 160
4.3889 -3.7998 -1.9555 160 160 160
4.7890 -4.1460 -1.9711 160 160 160
5.2271 -4.5238 -1.9773 160 160 160
5.3543 -4.6362 -1.8498 160 160 160
5.8245 -5.0421 -1.8216 160 160 160
6.4509 -5.5845 -1.8103 160 160 160
7.2744 -6.2975 -1.8101 160 160 160
8.3499 -7.1628 -1.8052 160 160 160
9.0831 -7.7915 -1.6802 160 160 160
9.0821 -7.7960 -1.3965 160 160 160
9.0591 -7.7819 -1.1136 160 160 160
9.0508 -7.7774 -0.8344 160 160 160
9.1893 -7.9015 -0.5656 160 160 160
9.3428 -8.0386 -0.2871 160 160 160
9.3774 -8.0710 -0.0015 160 160 160
-0.0000 -0.0343 -0.0016 160 160 160
9.1737 -7.9075 0.5623 160 160 160
9.1947 -7.9283 0.8459 160 160 160
9.5265 -8.2188 1.1703 160 160 160
9.1794 -7.9263 1.4142 160 160 160
9.0576 -7.8243 1.6775 160 160 160
9.0662 -7.8372 1.9637 160 160 160
9.0589 -7.8364 2.2511 160 160 160
0.4506 -0.4233 -0.3546 160 160 160
0.4882 -0.4561 -0.3641 160 160 160
0.0000 -0.0343 -0.0016 160 160 160
2.8741 -2.5202 -1.9094 160 160 160
3.0535 -2.6773 -1.9131 160 160 160
3.2598 -2.8569 -1.9214 160 160 160
3.4757 -3.0460 -1.9225 160 160 160
3.7328 -3.2710 -1.9308 160 160 160
4.0320 -3.5317 -1.9442 160 160 160
4.3629 -3.8213 -1.9536 160 160 160
4.7638 -4.1721 -1.9705 160 160 160
5.2055 -4.5575 -1.9790 160 160 160
5.3321 -4.6707 -1.8513 160 160 160
5.8059 -5.0845 -1.8248 160 160 160
6.4395 -5.6395 -1.8162 160 160 160
7.2412 -6.3418 -1.8108 160 160 160
8.3207 -7.2210 -1.8078 160 160 160
9.0817 -7.8810 -1.6883 160 160 160
9.0778 -7.8832 -1.4027 160 160 160
9.0565 -7.8703 -1.1188 160 160 160
9.0497 -7.8671 -0.8384 160 160 160
9.1907 -7.9948 -0.5685 160 160 160
9.3344 -8.1249 -0.2883 160 160 160
9.3264 -8.1208 -0.0015 160 160 160
0.0000 -0.0343 -0.0016 160 160 160
17.6996 -15.4025 1.0918 160 160 160
0.0000 -0.0343 -0.0016 160 160 160
0.0000 -0.0343 -0.0016 160 160 160
9.1682 -8.0089 1.4195 160 160 160
9.0543 -7.9126 1.6853 160 160 160
9.0568 -7.9202 1.9715 160 160 160
9.0539 -7.9232 2.2611 160 160 160
0.4522 -0.4292 -0.3576 160 160 160
0.4858 -0.4589 -0.3641 160 160 160
2.6812 -2.3789 -1.8954 160 160 160
2.8596 -2.5366 -1.9094 160 160 160
3.0396 -2.6960 -1.9140 160 160 160
3.2463 -2.8779 -1.9230 160 160 160
3.4639 -3.0706 -1.9256 160 160 160
3.7170 -3.2948 -1.9323 160 160 160
4.0090 -3.5522 -1.9428 160 160 160
4.3452 -3.8499 -1.9555 160 160 160
4.7370 -4.1969 -1.9693 160 160 160
5.1780 -4.5861 -1.9784 160 160 160
5.3213 -4.7153 -1.8568 160 160 160
5.7884 -5.1280 -1.8285 160 160 160
6.4071 -5.6764 -1.8162 160 160 160
7.2107 -6.3885 -1.8123 160 160 160
8.2925 -7.2804 -1.8107 160 160 160
9.0782 -7.9697 -1.6960 160 160 160
9.0743 -7.9719 -1.4092 160 160 160
9.0547 -7.9603 -1.1242 160 160 160
9.0420 -7.9519 -0.8419 160 160 160
9.1912 -8.0883 -0.5714 160 160 160
9.2681 -8.1613 -0.2877 160 160 160
9.2827 -8.1770 -0.0015 160 160 160
9.2743 -8.1754 0.2850 160 160 160
17.4922 -15.3999 1.0844 160 160 160
9.5932 -8.4642 0.8916 160 160 160
9.5975 -8.4739 1.1909 160 160 160
9.1475 -8.0837 1.4235 160 160 160
9.0490 -7.9998 1.6928 160 160 160
9.0572 -8.0127 1.9816 160 160 160
9.0540 -8.0155 2.2726 160 160 160
0.4602 -0.4408 -0.3658 160 160 160
0.4833 -0.4615 -0.3641 160 160 160
2.6677 -2.3942 -1.8954 160 160 160
2.8412 -2.5494 -1.9067 160 160 160
3.0242 -2.7133 -1.9140 160 160 160
3.2306 -2.8983 -1.9238 160 160 160
3.4450 -3.0893 -1.9248 160 160 160
3.6995 -3.3174 -1.9330 160 160 160
3.9923 -3.5797 -1.9449 160 160 160
4.3289 -3.8799 -1.9581 160 160 160
4.7144 -4.2253 -1.9699 160 160 160
5.1595 -4.6243 -1.9817 160 160 160
5.3232 -4.7715 -1.8670 160 160 160
5.7653 -5.1686 -1.8308 160 160 160
6.3779 -5.7181 -1.8174 160 160 160
7.1831 -6.4403 -1.8149 160 160 160
8.2654 -7.3410 -1.8140 160 160 160
9.0769 -8.0640 -1.7047 160 160 160
9.0731 -8.0634 -1.4162 160 160 160
9.0507 -8.0493 -1.1294 160 160 160
9.0441 -8.0490 -0.8465 160 160 160
9.1835 -8.1754 -0.5738 160 160 160
9.3199 -8.3021 -0.2907 160 160 160
9.2746 -8.2677 -0.0015 160 160 160
0.0000 -0.0342 -0.0016 160 160 160
9.1989 -8.2092 0.5724 160 160 160
9.5654 -8.5408 0.8937 160 160 160
9.5919 -8.5704 1.1965 160 160 160
9.1337 -8.1654 1.4286 160 160 160
9.0430 -8.0903 1.7006 160 160 160
9.0539 -8.1056 1.9913 160 160 160
9.0490 -8.1041 2.2829 160 160 160
0.4526 -0.4388 -0.3617 160 160 160
0.4807 -0.4643 -0.3641 160 160 160
2.6589 -2.4147 -1.8992 160 160 160
2.8289 -2.5685 -1.9085 160 160 160
3.0181 -2.7391 -1.9199 160 160 160
3.2182 -2.9204 -1.9262 160 160 160
3.4267 -3.1095 -1.9248 160 160 160
3.6805 -3.3385 -1.9330 160 160 160
3.9774 -3.6075 -1.9476 160 160 160
4.3052 -3.9034 -1.9574 160 160 160
4.6944 -4.2562 -1.9717 160 160 160
5.1386 -4.6589 -1.9839 160 160 160
5.3116 -4.8163 -1.8725 160 160 160
5.7501 -5.2147 -1.8354 160 160 160
6.3533 -5.7602 -1.8195 160 160 160
7.1530 -6.4855 -1.8163 160 160 160
8.2366 -7.4030 -1.8172 160 160 160
9.0732 -8.1543 -1.7127 160 160 160
9.0726 -8.1595 -1.4236 160 160 160
9.0444 -8.1399 -1.1346 160 160 160
9.0379 -8.1370 -0.8503 160 160 160
9.1857 -8.2751 -0.5769 160 160 160
9.3107 -8.3902 -0.2919 160 160 160
9.2702 -8.3597 -0.0015 160 160 160
9.5309 -8.5999 0.2961 160 160 160
9.5485 -8.6186 0.5973 160 160 160
9.5593 -8.6343 0.8977 160 160 160
9.5678 -8.6450 1.1995 160 160 160
9.1088 -8.2376 1.4321 160 160 160
9.0420 -8.1832 1.7093 160 160 160
9.0526 -8.1956 2.0011 160 160 160
9.0519 -8.2007 2.2955 160 160 160
0.4478 -0.4391 -0.3597 160 160 160
0.4706 -0.4599 -0.3582 160 160 160
2.6482 -2.4318 -1.9010 160 160 160
2.8147 -2.5842 -1.9085 160 160 160
2.9972 -2.7515 -1.9165 160 160 160
3.1988 -2.9363 -1.9246 160 160 160
3.4137 -3.1323 -1.9271 160 160 160
3.6670 -3.3646 -1.9359 160 160 160
3.9539 -3.6277 -1.9463 160 160 160
4.2885 -3.9332 -1.9600 160 160 160
4.6729 -4.2857 -1.9729 160 160 160
5.1119 -4.6884 -1.9839 160 160 160
5.3039 -4.8649 -1.8796 160 160 160
5.7288 -5.2556 -1.8381 160 160 160
6.3279 -5.8056 -1.8220 160 160 160
7.1234 -6.5357 -1.8186 160 160 160
8.2085 -7.4607 -1.8201 160 160 160
9.0719 -8.2476 -1.7214 160 160 160
9.0639 -8.2433 -1.4294 160 160 160
9.0507 -8.2370 -1.1410 160 160 160
9.0355 -8.2290 -0.8544 160 160 160
9.1898 -8.3718 -0.5801 160 160 160
9.2773 -8.4571 -0.2924 160 160 160
9.2635 -8.4505 -0.0014 160 160 160
9.3394 -8.5225 0.2916 160 160 160
9.3599 -8.5470 0.5886 160 160 160
9.3723 -8.5643 0.8847 160 160 160
9.3899 -8.5862 1.1835 160 160 160
9.0996 -8.3247 1.4381 160 160 160
9.0374 -8.2738 1.7173 160 160 160
9.0464 -8.2877 2.0105 160 160 160
9.0440 -8.2884 2.3055 160 160 160
0.4480 -0.4439 -0.3617 160 160 160
0.4667 -0.4614 -0.3572 160 160 160
2.6392 -2.4521 -1.9048 160 160 160
2.8048 -2.6057 -1.9121 160 160 160
2.9850 -2.7728 -1.9191 160 160 160
3.1848 -2.9572 -1.9262 160 160 160
3.3911 -3.1487 -1.9248 160 160 160
3.6457 -3.3849 -1.9352 160 160 160
3.9387 -3.6555 -1.9490 160 160 160
4.2639 -3.9572 -1.9594 160 160 160
4.6405 -4.3067 -1.9699 160 160 160
5.0907 -4.7229 -1.9861 160 160 160
5.3051 -4.9238 -1.8902 160 160 160
5.7130 -5.3016 -1.8427 160 160 160
6.2989 -5.8459 -1.8232 160 160 160
7.0915 -6.5818 -1.8200 160 160 160
8.1832 -7.5266 -1.8243 160 160 160
9.0683 -8.3398 -1.7297 160 160 160
9.0663 -8.3438 -1.4375 160 160 160
9.0401 -8.3256 -1.1459 160 160 160
9.0337 -8.3226 -0.8588 160 160 160
9.1813 -8.4639 -0.5827 160 160 160
9.2109 -8.4971 -0.2919 160 160 160
9.2370 -8.5239 -0.0014 160 160 160
9.2257 -8.5195 0.2896 160 160 160
9.2122 -8.5130 0.5824 160 160 160
9.2438 -8.5450 0.8772 160 160 160
9.2833 -8.5874 1.1762 160 160 160
9.0955 -8.4202 1.4453 160 160 160
9.0393 -8.3713 1.7268 160 160 160
9.0407 -8.3784 2.0199 160 160 160
9.0424 -8.3858 2.3178 160 160 160
0.4444 -0.4452 -0.3607 160 160 160
0.4605 -0.4605 -0.3543 160 160 160
2.6226 -2.4648 -1.9029 160 160 160
2.7912 -2.6229 -1.9130 160 160 160
2.9723 -2.7918 -1.9208 160 160 160
3.1678 -2.9753 -1.9262 160 160 160
3.3799 -3.1744 -1.9286 160 160 160
3.6270 -3.4052 -1.9352 160 160 160
3.9191 -3.6793 -1.9497 160 160 160
4.2433 -3.9822 -1.9600 160 160 160
4.6249 -4.3403 -1.9734 160 160 160
5.0636 -4.7520 -1.9861 160 160 160
5.3003 -4.9744 -1.8983 160 160 160
5.6939 -5.3450 -1.8464 160 160 160
6.2820 -5.8955 -1.8278 160 160 160
7.0692 -6.6346 -1.8237 160 160 160
8.1515 -7.5842 -1.8269 160 160 160
9.0653 -8.4335 -1.7383 160 160 160
9.0620 -8.4363 -1.4444 160 160 160
9.0389 -8.4207 -1.1518 160 160 160
9.0311 -8.4164 -0.8631 160 160 160
9.1355 -8.5193 -0.5829 160 160 160
9.1372 -8.5238 -0.2910 160 160 160
9.1645 -8.5551 -0.0014 160 160 160
9.1458 -8.5437 0.2886 160 160 160
9.1516 -8.5520 0.5816 160 160 160
9.1508 -8.5572 0.8730 160 160 160
9.1670 -8.5753 1.1675 160 160 160
9.0878 -8.5074 1.4516 160 160 160
9.0360 -8.4650 1.7354 160 160 160
9.0458 -8.4771 2.0316 160 160 160
9.0445 -8.4818 2.3304 160 160 160
0.4433 -0.4488 -0.3617 160 160 160
0.4555 -0.4606 -0.3523 160 160 160
2.6090 -2.4793 -1.9029 160 160 160
2.7741 -2.6359 -1.9112 160 160 160
2.9564 -2.8088 -1.9208 160 160 160
3.1549 -2.9972 -1.9286 160 160 160
3.3636 -3.1944 -1.9294 160 160 160
3.6075 -3.4260 -1.9352 160 160 160
3.8995 -3.7030 -1.9503 160 160 160
4.2218 -4.0077 -1.9606 160 160 160
4.6001 -4.3668 -1.9734 160 160 160
5.0419 -4.7863 -1.9883 160 160 160
5.3014 -5.0326 -1.9090 160 160 160
5.6704 -5.3843 -1.8487 160 160 160
6.2585 -5.9433 -1.8311 160 160 160
7.0399 -6.6858 -1.8263 160 160 160
8.1208 -7.6404 -1.8295 160 160 160
9.0659 -8.5315 -1.7478 160 160 160
9.0584 -8.5275 -1.4514 160 160 160
9.0441 -8.5200 -1.1585 160 160 160
9.0277 -8.5106 -0.8674 160 160 160
0.0000 -0.0337 -0.0016 160 160 160
0.0000 -0.0337 -0.0016 160 160 160
0.0000 -0.0337 -0.0016 160 160 160
0.0000 -0.0337 -0.0016 160 160 160
9.0805 -8.5839 0.5802 160 160 160
9.0914 -8.6002 0.8721 160 160 160
9.1017 -8.6158 1.1657 160 160 160
9.0821 -8.6003 1.4586 160 160 160
9.0391 -8.5657 1.7455 160 160 160
9.0373 -8.5699 2.0410 160 160 160
9.0371 -8.5728 2.3411 160 160 160
0.4396 -0.4502 -0.3607 160 160 160
0.4567 -0.4667 -0.3552 160 160 160
2.5970 -2.4971 -1.9048 160 160 160
2.7573 -2.6511 -1.9103 160 160 160
2.9411 -2.8275 -1.9216 160 160 160
3.1359 -3.0146 -1.9278 160 160 160
3.3394 -3.2091 -1.9263 160 160 160
3.5900 -3.4498 -1.9366 160 160 160
3.8749 -3.7234 -1.9490 160 160 160
4.2010 -4.0353 -1.9619 160 160 160
4.5743 -4.3940 -1.9734 160 160 160
5.0164 -4.8187 -1.9894 160 160 160
5.2968 -5.0880 -1.9181 160 160 160
5.6484 -5.4272 -1.8519 160 160 160
6.2162 -5.9735 -1.8290 160 160 160
7.0032 -6.7302 -1.8271 160 160 160
8.0883 -7.7005 -1.8324 160 160 160
9.0627 -8.6301 -1.7570 160 160 160
9.0568 -8.6276 -1.4593 160 160 160
9.0384 -8.6160 -1.1642 160 160 160
9.0265 -8.6106 -0.8721 160 160 160
0.0000 -0.0337 -0.0016 160 160 160
0.0000 -0.0337 -0.0016 160 160 160
0.0000 -0.0337 -0.0016 160 160 160
0.0000 -0.0337 -0.0016 160 160 160
0.0000 -0.0337 -0.0016 160 160 160
0.0000 -0.0337 -0.0016 160 160 160
0.0000 -0.0337 -0.0016 160 160 160
0.0000 -0.0337 -0.0016 160 160 160
9.0285 -8.6574 1.7533 160 160 160
9.0321 -8.6670 2.0513 160 160 160
9.0332 -8.6710 2.3533 160 160 160
0.4359 -0.4513 -0.3596 160 160 160
0.4542 -0.4693 -0.3552 160 160 160
2.5841 -2.5132 -1.9057 160 160 160
2.7448 -2.6692 -1.9121 160 160 160
2.9250 -2.8443 -1.9216 160 160 160
3.1218 -3.0344 -1.9294 160 160 160
3.3238 -3.2308 -1.9279 160 160 160
3.5703 -3.4703 -1.9366 160 160 160
3.8583 -3.7489 -1.9510 160 160 160
4.1792 -4.0606 -1.9625 160 160 160
4.5532 -4.4241 -1.9752 160 160 160
4.9897 -4.8466 -1.9894 160 160 160
5.2941 -5.1438 -1.9277 160 160 160
5.6279 -5.4680 -1.8552 160 160 160
6.1886 -6.0135 -1.8307 160 160 160
6.9798 -6.7828 -1.8308 160 160 160
8.0612 -7.7633 -1.8363 160 160 160
9.0660 -8.7298 -1.7670 160 160 160
9.0573 -8.7276 -1.4674 160 160 160
9.0333 -8.7106 -1.1700 160 160 160
9.0231 -8.7037 -0.8764 160 160 160
9.1085 -8.7920 -0.5907 160 160 160
9.1086 -8.7981 -0.2949 160 160 160
9.1082 -8.8007 -0.0014 160 160 160
9.0882 -8.7876 0.2916 160 160 160
9.0763 -8.7822 0.5865 160 160 160
-0.0000 -0.0335 -0.0016 160 160 160
-0.0000 -0.0335 -0.0016 160 160 160
-0.0000 -0.0335 -0.0016 160 160 160
9.0300 -8.7558 1.7630 160 160 160
9.0319 -8.7638 2.0624 160 160 160
9.0270 -8.7651 2.3648 160 160 160
0.4384 -0.4586 -0.3637 160 160 160
0.4480 -0.4682 -0.3523 160 160 160
2.5761 -2.5341 -1.9104 160 160 160
2.7270 -2.6824 -1.9103 160 160 160
2.9075 -2.8597 -1.9208 160 160 160
3.1045 -3.0523 -1.9294 160 160 160
3.3040 -3.2485 -1.9271 160 160 160
3.5491 -3.4894 -1.9359 160 160 160
3.8382 -3.7722 -1.9517 160 160 160
4.1573 -4.0859 -1.9632 160 160 160
4.5305 -4.4528 -1.9764 160 160 160
4.9729 -4.8859 -1.9938 160 160 160
5.2922 -5.2012 -1.9378 160 160 160
5.6063 -5.5097 -1.8584 160 160 160
6.1765 -6.0709 -1.8373 160 160 160
6.9492 -6.8310 -1.8330 160 160 160
8.0250 -7.8178 -1.8383 160 160 160
9.0584 -8.8233 -1.7753 160 160 160
9.0555 -8.8265 -1.4752 160 160 160
9.0317 -8.8095 -1.1763 160 160 160
9.0201 -8.8013 -0.8810 160 160 160
9.1195 -8.9041 -0.5947 160 160 160
9.1110 -8.9020 -0.2966 160 160 160
9.1048 -8.8990 -0.0014 160 160 160
9.0878 -8.8886 0.2932 160 160 160
9.0715 -8.8789 0.5895 160 160 160
9.0691 -8.8797 0.8845 160 160 160
9.0660 -8.8829 1.1805 160 160 160
9.0563 -8.8795 1.4790 160 160 160
9.0306 -8.8574 1.7730 160 160 160
9.0338 -8.8667 2.0744 160 160 160
9.0258 -8.8651 2.3778 160 160 160
0.4298 -0.4550 -0.3586 160 160 160
0.4430 -0.4682 -0.3503 160 160 160
0.4851 -0.5097 -0.3630 160 160 160
2.7066 -2.6929 -1.9067 160 160 160
2.8925 -2.8776 -1.9216 160 160 160
3.0845 -3.0675 -1.9278 160 160 160
3.2881 -3.2700 -1.9286 160 160 160
3.5371 -3.5176 -1.9402 160 160 160
3.8166 -3.7942 -1.9517 160 160 160
4.1325 -4.1084 -1.9625 160 160 160
4.5010 -4.4747 -1.9746 160 160 160
4.9462 -4.9158 -1.9943 160 160 160
5.2940 -5.2628 -1.9495 160 160 160
5.5843 -5.5514 -1.8616 160 160 160
6.1499 -6.1146 -1.8398 160 160 160
6.9240 -6.8847 -1.8367 160 160 160
7.9927 -7.8762 -1.8412 160 160 160
9.0557 -8.9224 -1.7848 160 160 160
9.0501 -8.9231 -1.4827 160 160 160
9.0293 -8.9089 -1.1826 160 160 160
9.0221 -8.9048 -0.8862 160 160 160
9.1096 -8.9971 -0.5974 160 160 160
9.1110 -9.0047 -0.2983 160 160 160
9.1034 -9.0003 -0.0014 160 160 160
9.0779 -8.9814 0.2945 160 160 160
9.0731 -8.9829 0.5929 160 160 160
9.0607 -8.9737 0.8887 160 160 160
9.0631 -8.9824 1.1869 160 160 160
9.0532 -8.9789 1.4870 160 160 160
9.0190 -8.9482 1.7809 160 160 160
9.0234 -8.9587 2.0838 160 160 160
9.0222 -8.9638 2.3904 160 160 160
0.4310 -0.4610 -0.3617 160 160 160
0.4393 -0.4695 -0.3493 160 160 160
0.4873 -0.5174 -0.3668 160 160 160
2.6823 -2.6996 -1.9004 160 160 160
2.8773 -2.8954 -1.9225 160 160 160
3.0682 -3.0864 -1.9286 160 160 160
3.2707 -3.2901 -1.9294 160 160 160
3.5143 -3.5351 -1.9388 160 160 160
3.7936 -3.8147 -1.9510 160 160 160
4.1130 -4.1360 -1.9644 160 160 160
4.4794 -4.5046 -1.9764 160 160 160
4.9207 -4.9467 -1.9954 160 160 160
5.2952 -5.3245 -1.9611 160 160 160
5.5621 -5.5931 -1.8648 160 160 160
6.1259 -6.1609 -1.8431 160 160 160
6.8899 -6.9298 -1.8381 160 160 160
7.9600 -7.9346 -1.8441 160 160 160
9.0536 -9.0232 -1.7945 160 160 160
9.0494 -9.0254 -1.4910 160 160 160
9.0275 -9.0097 -1.1891 160 160 160
9.0190 -9.0045 -0.8909 160 160 160
9.1074 -9.0986 -0.6006 160 160 160
9.1031 -9.1007 -0.2997 160 160 160
9.0984 -9.0991 -0.0014 160 160 160
9.0800 -9.0871 0.2963 160 160 160
9.0694 -9.0829 0.5961 160 160 160
9.0612 -9.0778 0.8939 160 160 160
9.0522 -9.0752 1.1923 160 160 160
9.0465 -9.0758 1.4944 160 160 160
9.0208 -9.0531 1.7914 160 160 160
9.0263 -9.0649 2.0964 160 160 160
9.0179 -9.0628 2.4030 160 160 160
0.4322 -0.4671 -0.3647 160 160 160
0.4379 -0.4731 -0.3503 160 160 160
0.4858 -0.5213 -0.3677 160 160 160
2.6821 -2.7302 -1.9111 160 160 160
2.8620 -2.9131 -1.9233 160 160 160
3.0513 -3.1057 -1.9294 160 160 160
3.2544 -3.3115 -1.9309 160 160 160
3.4954 -3.5566 -1.9395 160 160 160
3.7790 -3.8451 -1.9551 160 160 160
4.0919 -4.1622 -1.9657 160 160 160
4.4536 -4.5303 -1.9764 160 160 160
4.8942 -4.9785 -1.9965 160 160 160
5.2878 -5.3782 -1.9697 160 160 160
5.5331 -5.6300 -1.8662 160 160 160
6.0990 -6.2067 -1.8460 160 160 160
6.8613 -6.9831 -1.8415 160 160 160
7.9325 -7.9984 -1.8483 160 160 160
9.0475 -9.1243 -1.8040 160 160 160
9.0452 -9.1251 -1.4989 160 160 160
9.0234 -9.1096 -1.1954 160 160 160
9.0120 -9.1044 -0.8955 160 160 160
9.1043 -9.2005 -0.6039 160 160 160
9.1029 -9.2055 -0.3014 160 160 160
9.0980 -9.2068 -0.0014 160 160 160
9.0742 -9.1860 0.2978 160 160 160
9.0621 -9.1802 0.5991 160 160 160
9.0552 -9.1796 0.8986 160 160 160
9.0488 -9.1796 1.1990 160 160 160
9.0474 -9.1813 1.5032 160 160 160
9.0159 -9.1558 1.8012 160 160 160
9.0196 -9.1659 2.1075 160 160 160
9.0210 -9.1705 2.4178 160 160 160
0.4284 -0.4683 -0.3637 160 160 160
0.4329 -0.4732 -0.3483 160 160 160
0.4829 -0.5242 -0.3677 160 160 160
2.6635 -2.7435 -1.9093 160 160 160
2.8449 -2.9300 -1.9233 160 160 160
3.0335 -3.1232 -1.9294 160 160 160
3.2362 -3.3319 -1.9317 160 160 160
3.4745 -3.5772 -1.9395 160 160 160
3.7582 -3.8680 -1.9558 160 160 160
4.0674 -4.1864 -1.9657 160 160 160
4.4295 -4.5593 -1.9776 160 160 160
4.8696 -5.0107 -1.9982 160 160 160
5.2885 -5.4426 -1.9819 160 160 160
5.5116 -5.6728 -1.8699 160 160 160
6.0633 -6.2417 -1.8460 160 160 160
6.8267 -7.0281 -1.8429 160 160 160
7.8948 -8.0551 -1.8506 160 160 160
9.0450 -9.2271 -1.8140 160 160 160
9.0412 -9.2296 -1.5072 160 160 160
9.0168 -9.2111 -1.2017 160 160 160
9.0100 -9.2073 -0.9005 160 160 160
9.1043 -9.3098 -0.6075 160 160 160
9.0958 -9.3077 -0.3030 160 160 160
9.0869 -9.3018 -0.0014 160 160 160
9.0757 -9.2968 0.2997 160 160 160
9.0664 -9.2937 0.6030 160 160 160
9.0567 -9.2871 0.9041 160 160 160
9.0504 -9.2870 1.2062 160 160 160
9.0415 -9.2845 1.5114 160 160 160
9.0143 -9.2598 1.8115 160 160 160
9.0138 -9.2657 2.1185 160 160 160
9.0105 -9.2688 2.4297 160 160 160
0.4163 -0.4609 -0.3555 160 160 160
0.4327 -0.4780 -0.3503 160 160 160
0.4862 -0.5332 -0.3724 160 160 160
2.6503 -2.7611 -1.9111 160 160 160
2.8282 -2.9462 -1.9233 160 160 160
3.0221 -3.1471 -1.9335 160 160 160
3.2197 -3.3530 -1.9332 160 160 160
3.4592 -3.6024 -1.9424 160 160 160
3.7348 -3.8882 -1.9551 160 160 160
4.0500 -4.2164 -1.9689 160 160 160
4.4020 -4.5832 -1.9770 160 160 160
4.8408 -5.0385 -1.9982 160 160 160
5.2909 -5.5077 -1.9945 160 160 160
5.4872 -5.7128 -1.8727 160 160 160
6.0208 -6.2694 -1.8439 160 160 160
6.7957 -7.0771 -1.8455 160 160 160
7.8663 -8.1187 -1.8548 160 160 160
9.0375 -9.3258 -1.8232 160 160 160
9.0393 -9.3341 -1.5158 160 160 160
9.0206 -9.3214 -1.2093 160 160 160
9.0056 -9.3090 -0.9054 160 160 160
9.1022 -9.4151 -0.6110 160 160 160
9.0952 -9.4145 -0.3047 160 160 160
9.0849 -9.4070 -0.0014 160 160 160
9.0666 -9.3948 0.3012 160 160 160
9.0574 -9.3917 0.6060 160 160 160
9.0532 -9.3906 0.9091 160 160 160
9.0467 -9.3904 1.2129 160 160 160
9.0461 -9.3963 1.5211 160 160 160
9.0092 -9.3613 1.8212 160 160 160
9.0166 -9.3756 2.1318 160 160 160
9.0117 -9.3770 2.4445 160 160 160
0.4186 -0.4682 -0.3596 160 160 160
0.4266 -0.4767 -0.3474 160 160 160
0.4809 -0.5334 -0.3705 160 160 160
2.6396 -2.7815 -1.9147 160 160 160
2.8114 -2.9624 -1.9233 160 160 160
3.0029 -3.1631 -1.9327 160 160 160
3.2006 -3.3714 -1.9332 160 160 160
3.4386 -3.6222 -1.9424 160 160 160
3.7113 -3.9082 -1.9544 160 160 160
4.0219 -4.2355 -1.9670 160 160 160
4.3757 -4.6084 -1.9770 160 160 160
4.8119 -5.0663 -1.9982 160 160 160
5.2886 -5.5688 -2.0057 160 160 160
5.4652 -5.7555 -1.8763 160 160 160
5.9968 -6.3166 -1.8477 160 160 160
6.7646 -7.1260 -1.8481 160 160 160
7.8346 -8.1794 -1.8583 160 160 160
9.0346 -9.4304 -1.8334 160 160 160
9.0324 -9.4346 -1.5237 160 160 160
9.0167 -9.4248 -1.2160 160 160 160
9.0045 -9.4154 -0.9107 160 160 160
0.0000 -0.0330 -0.0015 160 160 160
9.4408 -9.8838 -0.3181 160 160 160
11.8380 -12.3894 -0.0013 160 160 160
0.0000 -0.0330 -0.0015 160 160 160
0.0000 -0.0330 -0.0015 160 160 160
9.0461 -9.4916 0.9138 160 160 160
9.0380 -9.4898 1.2191 160 160 160
9.0345 -9.4927 1.5283 160 160 160
9.0113 -9.4717 1.8327 160 160 160
9.0172 -9.4844 2.1448 160 160 160
9.0079 -9.4813 2.4582 160 160 160
0.4185 -0.4730 -0.3617 160 160 160
0.4204 -0.4753 -0.3444 160 160 160
0.4805 -0.5386 -0.3724 160 160 160
2.6188 -2.7914 -1.9111 160 160 160
2.7993 -2.9837 -1.9267 160 160 160
2.9835 -3.1789 -1.9318 160 160 160
3.1813 -3.3898 -1.9332 160 160 160
3.4204 -3.6445 -1.9438 160 160 160
3.6915 -3.9322 -1.9558 160 160 160
3.9989 -4.2599 -1.9676 160 160 160
4.3545 -4.6390 -1.9793 160 160 160
4.7868 -5.0980 -1.9998 160 160 160
5.2739 -5.6174 -2.0122 160 160 160
5.4387 -5.7938 -1.8786 160 160 160
5.9766 -6.3680 -1.8527 160 160 160
6.7331 -7.1748 -1.8507 160 160 160
7.7985 -8.2358 -1.8609 160 160 160
9.0322 -9.5368 -1.8440 160 160 160
9.0301 -9.5412 -1.5325 160 160 160
9.0104 -9.5271 -1.2225 160 160 160
9.0025 -9.5220 -0.9160 160 160 160
9.1763 -9.7120 -0.6233 160 160 160
9.3661 -9.9191 -0.3175 160 160 160
14.7730 -15.6316 -0.0012 160 160 160
14.7554 -15.6239 0.4971 160 160 160
-0.0000 -0.0329 -0.0015 160 160 160
9.5301 -10.1132 0.9687 160 160 160
9.5387 -10.1293 1.2945 160 160 160
9.0344 -9.6023 1.5376 160 160 160
9.0045 -9.5739 1.8424 160 160 160
9.0100 -9.5863 2.1561 160 160 160
9.0046 -9.5873 2.4723 160 160 160
0.4101 -0.4690 -0.3565 160 160 160
0.4215 -0.4815 -0.3473 160 160 160
0.4800 -0.5439 -0.3743 160 160 160
2.6053 -2.8089 -1.9129 160 160 160
2.7823 -2.9997 -1.9267 160 160 160
2.9666 -3.1973 -1.9327 160 160 160
3.1631 -3.4093 -1.9340 160 160 160
3.3957 -3.6600 -1.9416 160 160 160
3.6702 -3.9546 -1.9564 160 160 160
3.9810 -4.2897 -1.9708 160 160 160
4.3280 -4.6640 -1.9793 160 160 160
4.7589 -5.1268 -2.0004 160 160 160
5.2470 -5.6533 -2.0143 160 160 160
5.4068 -5.8265 -1.8791 160 160 160
5.9481 -6.4108 -1.8552 160 160 160
6.7012 -7.2234 -1.8533 160 160 160
7.7660 -8.2964 -1.8645 160 160 160
9.0180 -9.6319 -1.8524 160 160 160
9.0282 -9.6494 -1.5415 160 160 160
9.0060 -9.6325 -1.2294 160 160 160
8.9995 -9.6290 -0.9213 160 160 160
9.1628 -9.8098 -0.6262 160 160 160
9.3650 -10.0326 -0.3194 160 160 160
9.2346 -9.8967 -0.0013 160 160 160
9.1931 -9.8593 0.3111 160 160 160
9.8248 -10.5419 0.6696 160 160 160
9.5305 -10.2305 0.9747 160 160 160
9.5320 -10.2393 1.3016 160 160 160
9.0280 -9.7064 1.5460 160 160 160
9.0034 -9.6834 1.8535 160 160 160
9.0033 -9.6900 2.1678 160 160 160
8.9976 -9.6907 2.4856 160 160 160
0.4098 -0.4738 -0.3586 160 160 160
