ply
format ascii 1.0
element vertex 1314
property float x
property float y
property float z
property uchar red
property uchar green
property uchar blue
end_header
13.3861 -13.0971 -0.7448 230 126 34
13.3861 -13.0971 -0.7240 230 126 34
13.3861 -13.0971 -0.7031 230 126 34
13.3861 -13.0971 -0.6823 230 126 34
13.3861 -13.0971 -0.6614 230 126 34
13.3861 -13.0971 -0.6405 230 126 34
13.3861 -13.0971 -0.6197 230 126 34
13.3861 -13.0971 -0.5988 230 126 34
13.3861 -13.0971 -0.5779 230 126 34
13.3861 -13.0971 -0.5571 230 126 34
13.3861 -13.0971 -0.5362 230 126 34
13.3861 -13.0971 -0.5153 230 126 34
13.3861 -13.0971 -0.4945 230 126 34
13.3861 -13.0971 -0.4736 230 126 34
13.3861 -13.0971 -0.4527 230 126 34
13.3861 -13.0971 -0.4319 230 126 34
13.3861 -13.0971 -0.4110 230 126 34
13.3861 -13.0971 -0.3901 230 126 34
13.3861 -13.0971 -0.3693 230 126 34
13.3861 -13.0971 -0.3484 230 126 34
13.3861 -13.0971 -0.3276 230 126 34
13.3861 -13.0971 -0.3067 230 126 34
13.3861 -13.0971 -0.2858 230 126 34
13.3861 -13.0971 -0.2650 230 126 34
13.3861 -13.0971 -0.2441 230 126 34
13.3861 -13.0971 -0.2232 230 126 34
13.3861 -13.0971 -0.2024 230 126 34
13.3861 -13.0971 -0.1815 230 126 34
13.3861 -13.0971 -0.1606 230 126 34
13.3861 -13.0971 -0.1398 230 126 34
13.3861 -13.0971 -0.1189 230 126 34
13.3861 -13.0971 -0.0980 230 126 34
13.3861 -13.0971 -0.0772 230 126 34
13.3861 -13.0971 -0.0563 230 126 34
13.3861 -13.0971 -0.0354 230 126 34
13.3861 -13.0971 -0.0146 230 126 34
13.3861 -13.0971 0.0063 230 126 34
13.3861 -13.0971 0.0272 230 126 34
13.3861 -13.0971 0.0480 230 126 34
13.3861 -13.0971 0.0689 230 126 34
13.3861 -13.0971 0.0897 230 126 34
13.3861 -13.0971 0.1106 230 126 34
13.3861 -13.0971 0.1315 230 126 34
13.3861 -13.0971 0.1523 230 126 34
13.3861 -13.0971 0.1732 230 126 34
13.3861 -13.0971 0.1941 230 126 34
13.3861 -13.0971 0.2149 230 126 34
13.3861 -13.0971 0.2358 230 126 34
13.3861 -13.0971 0.2567 230 126 34
13.3861 -13.0971 0.2775 230 126 34
13.3861 -13.0971 0.2984 230 126 34
13.3861 -13.0971 0.3193 230 126 34
13.3861 -13.0971 0.3401 230 126 34
13.3861 -13.0971 0.3610 230 126 34
13.3861 -13.0971 0.3819 230 126 34
13.3861 -13.0971 0.4027 230 126 34
13.3861 -13.0971 0.4236 230 126 34
13.3861 -13.0971 0.4444 230 126 34
13.3861 -13.0971 0.4653 230 126 34
13.3861 -13.0971 0.4862 230 126 34
13.3861 -13.0971 0.5070 230 126 34
13.3861 -13.0971 0.5279 230 126 34
13.3861 -13.0971 0.5488 230 126 34
13.3861 -13.0971 0.5696 230 126 34
13.3861 -13.0971 0.5905 230 126 34
13.3861 -13.0971 0.6114 230 126 34
13.3861 -13.0971 0.6322 230 126 34
13.3861 -13.0971 0.6531 230 126 34
13.3861 -13.0971 0.6740 230 126 34
13.3861 -13.0971 0.6948 230 126 34
13.3861 -13.0971 0.7157 230 126 34
13.3861 -13.0971 0.7366 230 126 34
13.3861 -13.0971 0.7574 230 126 34
13.3861 -13.0971 0.7783 230 126 34
13.3861 -13.0971 0.7991 230 126 34
13.3861 -13.0971 0.8200 230 126 34
13.3861 -13.0971 0.8409 230 126 34
13.3861 -13.0971 0.8617 230 126 34
13.3861 -13.0971 0.8826 230 126 34
13.3861 -13.0971 0.9035 230 126 34
13.3861 -13.0971 0.9243 230 126 34
13.3861 -13.0971 0.9452 230 126 34
13.3861 -13.0971 0.9661 230 126 34
13.3861 -13.0971 0.9869 230 126 34
13.3861 -13.0971 1.0078 230 126 34
13.3861 -13.0971 1.0287 230 126 34
13.3861 -13.0971 1.0495 230 126 34
13.3861 -13.0971 1.0704 230 126 34
13.3861 -13.0971 1.0913 230 126 34
13.3861 -13.0971 1.1121 230 126 34
13.3861 -13.0971 1.1330 230 126 34
13.3861 -13.0971 1.1539 230 126 34
13.3861 -13.0971 1.1747 230 126 34
13.3861 -13.0971 1.1956 230 126 34
13.3861 -13.0971 1.2164 230 126 34
13.3861 -13.0971 1.2373 230 126 34
13.3861 -13.0971 1.2582 230 126 34
13.3861 -13.0971 1.2790 230 126 34
13.3861 -13.0971 1.2999 230 126 34
13.3861 -13.0971 1.3208 230 126 34
13.3861 -13.0971 1.3416 230 126 34
13.3861 -13.0971 1.3625 230 126 34
13.3861 -13.0971 1.3834 230 126 34
13.3861 -13.0971 1.4042 230 126 34
13.3861 -13.0971 1.4251 230 126 34
13.3861 -13.0971 1.4460 230 126 34
13.3861 -13.0971 1.4668 230 126 34
13.3861 -13.0971 1.4877 230 126 34
13.3861 -13.0971 1.5086 230 126 34
13.3861 -13.0971 1.5294 230 126 34
13.3861 -13.0971 1.5503 230 126 34
13.3861 -13.0971 1.5711 230 126 34
13.3861 -13.0971 1.5920 230 126 34
13.3861 -13.0971 1.6129 230 126 34
13.3861 -13.0971 1.6337 230 126 34
13.3861 -13.0971 1.6546 230 126 34
13.3861 -13.0971 1.6755 230 126 34
13.3861 -13.0971 1.6963 230 126 34
13.3861 -13.0971 1.7172 230 126 34
13.3861 -13.0971 1.7381 230 126 34
13.3861 -13.0971 1.7589 230 126 34
13.3861 -13.0971 1.7798 230 126 34
13.3861 -13.0971 1.8007 230 126 34
13.3861 -13.0971 1.8215 230 126 34
12.7583 -13.8182 -2.2829 107 203 119
12.7581 -13.7884 -2.2829 107 203 119
12.7580 -13.7586 -2.2829 107 203 119
12.7578 -13.7288 -2.2829 107 203 119
12.7577 -13.6990 -2.2829 107 203 119
12.7576 -13.6692 -2.2829 107 203 119
12.7574 -13.6394 -2.2829 107 203 119
12.7573 -13.6095 -2.2829 107 203 119
12.7572 -13.5797 -2.2829 107 203 119
12.7570 -13.5499 -2.2829 107 203 119
12.7569 -13.5201 -2.2829 107 203 119
12.7567 -13.4903 -2.2829 107 203 119
12.7566 -13.4605 -2.2829 107 203 119
12.7565 -13.4307 -2.2829 107 203 119
12.7563 -13.4009 -2.2829 107 203 119
12.7562 -13.3711 -2.2829 107 203 119
12.7561 -13.3412 -2.2829 107 203 119
12.7559 -13.3114 -2.2829 107 203 119
12.7558 -13.2816 -2.2829 107 203 119
12.7556 -13.2518 -2.2829 107 203 119
12.7555 -13.2220 -2.2829 107 203 119
12.7554 -13.1922 -2.2829 107 203 119
12.7552 -13.1624 -2.2829 107 203 119
12.7551 -13.1326 -2.2829 107 203 119
12.7549 -13.1028 -2.2829 107 203 119
12.7548 -13.0729 -2.2829 107 203 119
12.7547 -13.0431 -2.2829 107 203 119
12.7545 -13.0133 -2.2829 107 203 119
12.7544 -12.9835 -2.2829 107 203 119
12.7543 -12.9537 -2.2829 107 203 119
12.7541 -12.9239 -2.2829 107 203 119
12.7540 -12.8941 -2.2829 107 203 119
12.7538 -12.8643 -2.2829 107 203 119
12.7537 -12.8345 -2.2829 107 203 119
12.7536 -12.8046 -2.2829 107 203 119
12.7534 -12.7748 -2.2829 107 203 119
12.7533 -12.7450 -2.2829 107 203 119
12.7532 -12.7152 -2.2829 107 203 119
12.7530 -12.6854 -2.2829 107 203 119
12.7529 -12.6556 -2.2829 107 203 119
12.7527 -12.6258 -2.2829 107 203 119
12.7526 -12.5960 -2.2829 107 203 119
12.7525 -12.5662 -2.2829 107 203 119
12.7523 -12.5363 -2.2829 107 203 119
12.7522 -12.5065 -2.2829 107 203 119
12.7521 -12.4767 -2.2829 107 203 119
12.7519 -12.4469 -2.2829 107 203 119
12.7518 -12.4171 -2.2829 107 203 119
12.7516 -12.3873 -2.2829 107 203 119
12.7515 -12.3575 -2.2829 107 203 119
12.7514 -12.3277 -2.2829 107 203 119
12.7512 -12.2979 -2.2829 107 203 119
12.7511 -12.2680 -2.2829 107 203 119
12.7510 -12.2382 -2.2829 107 203 119
12.7508 -12.2084 -2.2829 107 203 119
12.7507 -12.1786 -2.2829 107 203 119
12.7505 -12.1488 -2.2829 107 203 119
12.7504 -12.1190 -2.2829 107 203 119
12.7503 -12.0892 -2.2829 107 203 119
12.7501 -12.0594 -2.2829 107 203 119
12.7500 -12.0296 -2.2829 107 203 119
12.7498 -11.9997 -2.2829 107 203 119
12.7497 -11.9699 -2.2829 107 203 119
12.7496 -11.9401 -2.2829 107 203 119
12.7494 -11.9103 -2.2829 107 203 119
12.7493 -11.8805 -2.2829 107 203 119
12.7492 -11.8507 -2.2829 107 203 119
12.7490 -11.8209 -2.2829 107 203 119
12.7489 -11.7911 -2.2829 107 203 119
12.7487 -11.7613 -2.2829 107 203 119
12.7486 -11.7314 -2.2829 107 203 119
12.7485 -11.7016 -2.2829 107 203 119
12.7483 -11.6718 -2.2829 107 203 119
12.7482 -11.6420 -2.2829 107 203 119
12.7481 -11.6122 -2.2829 107 203 119
12.7479 -11.5824 -2.2829 107 203 119
12.7478 -11.5526 -2.2829 107 203 119
12.7476 -11.5228 -2.2829 107 203 119
12.7475 -11.4930 -2.2829 107 203 119
12.7474 -11.4632 -2.2829 107 203 119
12.7472 -11.4333 -2.2829 107 203 119
12.7471 -11.4035 -2.2829 107 203 119
12.7470 -11.3737 -2.2829 107 203 119
12.7468 -11.3439 -2.2829 107 203 119
12.7467 -11.3141 -2.2829 107 203 119
12.7465 -11.2843 -2.2829 107 203 119
12.7464 -11.2545 -2.2829 107 203 119
12.7463 -11.2247 -2.2829 107 203 119
12.7461 -11.1949 -2.2829 107 203 119
12.7460 -11.1650 -2.2829 107 203 119
12.7459 -11.1352 -2.2829 107 203 119
12.7457 -11.1054 -2.2829 107 203 119
12.7456 -11.0756 -2.2829 107 203 119
12.7454 -11.0458 -2.2829 107 203 119
12.7453 -11.0160 -2.2829 107 203 119
12.7452 -10.9862 -2.2829 107 203 119
12.7450 -10.9564 -2.2829 107 203 119
12.7449 -10.9266 -2.2829 107 203 119
12.7447 -10.8967 -2.2829 107 203 119
12.7446 -10.8669 -2.2829 107 203 119
12.7445 -10.8371 -2.2829 107 203 119
12.7443 -10.8073 -2.2829 107 203 119
12.7442 -10.7775 -2.2829 107 203 119
12.7441 -10.7477 -2.2829 107 203 119
12.7439 -10.7179 -2.2829 107 203 119
12.7438 -10.6881 -2.2829 107 203 119
12.7436 -10.6583 -2.2829 107 203 119
12.7435 -10.6284 -2.2829 107 203 119
12.7434 -10.5986 -2.2829 107 203 119
12.7432 -10.5688 -2.2829 107 203 119
12.7431 -10.5390 -2.2829 107 203 119
12.7430 -10.5092 -2.2829 107 203 119
12.7428 -10.4794 -2.2829 107 203 119
12.7427 -10.4496 -2.2829 107 203 119
12.7425 -10.4198 -2.2829 107 203 119
12.7424 -10.3900 -2.2829 107 203 119
12.7423 -10.3601 -2.2829 107 203 119
12.7421 -10.3303 -2.2829 107 203 119
12.7420 -10.3005 -2.2829 107 203 119
12.7419 -10.2707 -2.2829 107 203 119
12.7417 -10.2409 -2.2829 107 203 119
12.7416 -10.2111 -2.2829 107 203 119
12.7414 -10.1813 -2.2829 107 203 119
12.7413 -10.1515 -2.2829 107 203 119
12.7412 -10.1217 -2.2829 107 203 119
12.7410 -10.0918 -2.2829 107 203 119
12.7409 -10.0620 -2.2829 107 203 119
12.7408 -10.0322 -2.2829 107 203 119
12.7406 -10.0024 -2.2829 107 203 119
12.7405 -9.9726 -2.2829 107 203 119
12.7403 -9.9428 -2.2829 107 203 119
12.7402 -9.9130 -2.2829 107 203 119
12.7401 -9.8832 -2.2829 107 203 119
12.7399 -9.8534 -2.2829 107 203 119
12.7398 -9.8235 -2.2829 107 203 119
12.7396 -9.7937 -2.2829 107 203 119
12.7395 -9.7639 -2.2829 107 203 119
12.7394 -9.7341 -2.2829 107 203 119
12.7392 -9.7043 -2.2829 107 203 119
12.7391 -9.6745 -2.2829 107 203 119
12.7390 -9.6447 -2.2829 107 203 119
12.7388 -9.6149 -2.2829 107 203 119
12.7387 -9.5851 -2.2829 107 203 119
12.7385 -9.5552 -2.2829 107 203 119
12.7384 -9.5254 -2.2829 107 203 119
12.7383 -9.4956 -2.2829 107 203 119
12.7381 -9.4658 -2.2829 107 203 119
12.7380 -9.4360 -2.2829 107 203 119
12.7379 -9.4062 -2.2829 107 203 119
12.7377 -9.3764 -2.2829 107 203 119
12.7376 -9.3466 -2.2829 107 203 119
12.7374 -9.3168 -2.2829 107 203 119
12.7373 -9.2869 -2.2829 107 203 119
12.7372 -9.2571 -2.2829 107 203 119
12.7370 -9.2273 -2.2829 107 203 119
12.7369 -9.1975 -2.2829 107 203 119
12.7368 -9.1677 -2.2829 107 203 119
12.7366 -9.1379 -2.2829 107 203 119
12.7365 -9.1081 -2.2829 107 203 119
12.7363 -9.0783 -2.2829 107 203 119
12.7362 -9.0485 -2.2829 107 203 119
12.7361 -9.0186 -2.2829 107 203 119
12.7359 -8.9888 -2.2829 107 203 119
12.7358 -8.9590 -2.2829 107 203 119
12.7356 -8.9292 -2.2829 107 203 119
12.7355 -8.8994 -2.2829 107 203 119
12.7354 -8.8696 -2.2829 107 203 119
12.7352 -8.8398 -2.2829 107 203 119
12.7351 -8.8100 -2.2829 107 203 119
12.7350 -8.7802 -2.2829 107 203 119
12.7348 -8.7503 -2.2829 107 203 119
12.7347 -8.7205 -2.2829 107 203 119
12.7345 -8.6907 -2.2829 107 203 119
12.7344 -8.6609 -2.2829 107 203 119
12.7343 -8.6311 -2.2829 107 203 119
12.7341 -8.6013 -2.2829 107 203 119
12.7340 -8.5715 -2.2829 107 203 119
12.7339 -8.5417 -2.2829 107 203 119
12.7337 -8.5119 -2.2829 107 203 119
12.7336 -8.4820 -2.2829 107 203 119
12.7334 -8.4522 -2.2829 107 203 119
12.7333 -8.4224 -2.2829 107 203 119
12.7332 -8.3926 -2.2829 107 203 119
12.7330 -8.3628 -2.2829 107 203 119
12.7329 -8.3330 -2.2829 107 203 119
12.7328 -8.3032 -2.2829 107 203 119
12.7326 -8.2734 -2.2829 107 203 119
12.7325 -8.2436 -2.2829 107 203 119
12.7323 -8.2137 -2.2829 107 203 119
12.7322 -8.1839 -2.2829 107 203 119
12.7321 -8.1541 -2.2829 107 203 119
12.7319 -8.1243 -2.2829 107 203 119
12.7318 -8.0945 -2.2829 107 203 119
12.7317 -8.0647 -2.2829 107 203 119
12.7315 -8.0349 -2.2829 107 203 119
12.7314 -8.0051 -2.2829 107 203 119
12.7312 -7.9753 -2.2829 107 203 119
12.7311 -7.9454 -2.2829 107 203 119
12.7310 -7.9156 -2.2829 107 203 119
12.7308 -7.8858 -2.2829 107 203 119
12.7308 -7.8858 -2.2829 107 203 119
12.7189 -7.8859 -2.2829 107 203 119
12.7070 -7.8859 -2.2829 107 203 119
12.6950 -7.8860 -2.2829 107 203 119
12.6831 -7.8860 -2.2829 107 203 119
12.6712 -7.8861 -2.2829 107 203 119
12.6592 -7.8862 -2.2829 107 203 119
12.6473 -7.8862 -2.2829 107 203 119
12.6354 -7.8863 -2.2829 107 203 119
12.6234 -7.8863 -2.2829 107 203 119
12.6115 -7.8864 -2.2829 107 203 119
12.5996 -7.8864 -2.2829 107 203 119
12.5877 -7.8865 -2.2829 107 203 119
12.5757 -7.8865 -2.2829 107 203 119
12.5638 -7.8866 -2.2829 107 203 119
12.5519 -7.8867 -2.2829 107 203 119
12.5399 -7.8867 -2.2829 107 203 119
12.5280 -7.8868 -2.2829 107 203 119
12.5161 -7.8868 -2.2829 107 203 119
12.5041 -7.8869 -2.2829 107 203 119
12.4922 -7.8869 -2.2829 107 203 119
12.4803 -7.8870 -2.2829 107 203 119
12.4683 -7.8870 -2.2829 107 203 119
12.4564 -7.8871 -2.2829 107 203 119
12.4445 -7.8871 -2.2829 107 203 119
12.4325 -7.8872 -2.2829 107 203 119
12.4206 -7.8873 -2.2829 107 203 119
12.4087 -7.8873 -2.2829 107 203 119
12.3968 -7.8874 -2.2829 107 203 119
12.3848 -7.8874 -2.2829 107 203 119
12.3729 -7.8875 -2.2829 107 203 119
12.3610 -7.8875 -2.2829 107 203 119
12.3490 -7.8876 -2.2829 107 203 119
12.3371 -7.8876 -2.2829 107 203 119
12.3252 -7.8877 -2.2829 107 203 119
12.3132 -7.8878 -2.2829 107 203 119
12.3013 -7.8878 -2.2829 107 203 119
12.2894 -7.8879 -2.2829 107 203 119
12.2774 -7.8879 -2.2829 107 203 119
12.2655 -7.8880 -2.2829 107 203 119
12.2536 -7.8880 -2.2829 107 203 119
12.2417 -7.8881 -2.2829 107 203 119
12.2297 -7.8881 -2.2829 107 203 119
12.2178 -7.8882 -2.2829 107 203 119
12.2059 -7.8883 -2.2829 107 203 119
12.1939 -7.8883 -2.2829 107 203 119
12.1820 -7.8884 -2.2829 107 203 119
12.1701 -7.8884 -2.2829 107 203 119
12.1581 -7.8885 -2.2829 107 203 119
12.1462 -7.8885 -2.2829 107 203 119
12.1343 -7.8886 -2.2829 107 203 119
12.1223 -7.8886 -2.2829 107 203 119
12.1104 -7.8887 -2.2829 107 203 119
12.0985 -7.8887 -2.2829 107 203 119
12.0865 -7.8888 -2.2829 107 203 119
12.0746 -7.8889 -2.2829 107 203 119
12.0627 -7.8889 -2.2829 107 203 119
12.0508 -7.8890 -2.2829 107 203 119
12.0388 -7.8890 -2.2829 107 203 119
12.0269 -7.8891 -2.2829 107 203 119
12.0150 -7.8891 -2.2829 107 203 119
12.0030 -7.8892 -2.2829 107 203 119
11.9911 -7.8892 -2.2829 107 203 119
11.9792 -7.8893 -2.2829 107 203 119
11.9672 -7.8894 -2.2829 107 203 119
11.9553 -7.8894 -2.2829 107 203 119
11.9434 -7.8895 -2.2829 107 203 119
11.9314 -7.8895 -2.2829 107 203 119
11.9195 -7.8896 -2.2829 107 203 119
11.9076 -7.8896 -2.2829 107 203 119
11.8957 -7.8897 -2.2829 107 203 119
11.8837 -7.8897 -2.2829 107 203 119
11.8718 -7.8898 -2.2829 107 203 119
11.8599 -7.8899 -2.2829 107 203 119
11.8479 -7.8899 -2.2829 107 203 119
11.8360 -7.8900 -2.2829 107 203 119
11.8241 -7.8900 -2.2829 107 203 119
11.8121 -7.8901 -2.2829 107 203 119
11.8002 -7.8901 -2.2829 107 203 119
11.7883 -7.8902 -2.2829 107 203 119
11.7763 -7.8902 -2.2829 107 203 119
11.7644 -7.8903 -2.2829 107 203 119
11.7525 -7.8903 -2.2829 107 203 119
11.7405 -7.8904 -2.2829 107 203 119
11.7286 -7.8905 -2.2829 107 203 119
11.7167 -7.8905 -2.2829 107 203 119
11.7048 -7.8906 -2.2829 107 203 119
11.6928 -7.8906 -2.2829 107 203 119
11.6809 -7.8907 -2.2829 107 203 119
11.6690 -7.8907 -2.2829 107 203 119
11.6570 -7.8908 -2.2829 107 203 119
11.6451 -7.8908 -2.2829 107 203 119
11.6332 -7.8909 -2.2829 107 203 119
11.6212 -7.8910 -2.2829 107 203 119
11.6093 -7.8910 -2.2829 107 203 119
11.5974 -7.8911 -2.2829 107 203 119
11.5854 -7.8911 -2.2829 107 203 119
11.5735 -7.8912 -2.2829 107 203 119
11.5616 -7.8912 -2.2829 107 203 119
11.5497 -7.8913 -2.2829 107 203 119
11.5377 -7.8913 -2.2829 107 203 119
11.5258 -7.8914 -2.2829 107 203 119
11.5139 -7.8915 -2.2829 107 203 119
11.5019 -7.8915 -2.2829 107 203 119
11.4900 -7.8916 -2.2829 107 203 119
11.4781 -7.8916 -2.2829 107 203 119
11.4661 -7.8917 -2.2829 107 203 119
11.4542 -7.8917 -2.2829 107 203 119
11.4423 -7.8918 -2.2829 107 203 119
11.4303 -7.8918 -2.2829 107 203 119
11.4184 -7.8919 -2.2829 107 203 119
11.4065 -7.8919 -2.2829 107 203 119
11.3945 -7.8920 -2.2829 107 203 119
11.3826 -7.8921 -2.2829 107 203 119
11.3707 -7.8921 -2.2829 107 203 119
11.3588 -7.8922 -2.2829 107 203 119
11.3468 -7.8922 -2.2829 107 203 119
11.3349 -7.8923 -2.2829 107 203 119
11.3230 -7.8923 -2.2829 107 203 119
11.3110 -7.8924 -2.2829 107 203 119
11.2991 -7.8924 -2.2829 107 203 119
11.2872 -7.8925 -2.2829 107 203 119
11.2752 -7.8926 -2.2829 107 203 119
11.2633 -7.8926 -2.2829 107 203 119
11.2514 -7.8927 -2.2829 107 203 119
11.2394 -7.8927 -2.2829 107 203 119
11.2275 -7.8928 -2.2829 107 203 119
11.2156 -7.8928 -2.2829 107 203 119
11.2036 -7.8929 -2.2829 107 203 119
11.1917 -7.8929 -2.2829 107 203 119
11.1798 -7.8930 -2.2829 107 203 119
11.1679 -7.8931 -2.2829 107 203 119
11.1559 -7.8931 -2.2829 107 203 119
11.1440 -7.8932 -2.2829 107 203 119
11.1321 -7.8932 -2.2829 107 203 119
11.1201 -7.8933 -2.2829 107 203 119
11.1082 -7.8933 -2.2829 107 203 119
11.0963 -7.8934 -2.2829 107 203 119
11.0843 -7.8934 -2.2829 107 203 119
11.0724 -7.8935 -2.2829 107 203 119
11.0605 -7.8935 -2.2829 107 203 119
11.0485 -7.8936 -2.2829 107 203 119
11.0366 -7.8937 -2.2829 107 203 119
11.0247 -7.8937 -2.2829 107 203 119
11.0128 -7.8938 -2.2829 107 203 119
11.0008 -7.8938 -2.2829 107 203 119
10.9889 -7.8939 -2.2829 107 203 119
10.9770 -7.8939 -2.2829 107 203 119
10.9650 -7.8940 -2.2829 107 203 119
10.9531 -7.8940 -2.2829 107 203 119
10.9412 -7.8941 -2.2829 107 203 119
10.9292 -7.8942 -2.2829 107 203 119
10.9173 -7.8942 -2.2829 107 203 119
10.9054 -7.8943 -2.2829 107 203 119
10.8934 -7.8943 -2.2829 107 203 119
10.8815 -7.8944 -2.2829 107 203 119
10.8696 -7.8944 -2.2829 107 203 119
10.8576 -7.8945 -2.2829 107 203 119
10.8457 -7.8945 -2.2829 107 203 119
10.8338 -7.8946 -2.2829 107 203 119
10.8219 -7.8947 -2.2829 107 203 119
10.8099 -7.8947 -2.2829 107 203 119
10.7980 -7.8948 -2.2829 107 203 119
10.7861 -7.8948 -2.2829 107 203 119
10.7741 -7.8949 -2.2829 107 203 119
10.7622 -7.8949 -2.2829 107 203 119
10.7503 -7.8950 -2.2829 107 203 119
10.7383 -7.8950 -2.2829 107 203 119
10.7264 -7.8951 -2.2829 107 203 119
10.7145 -7.8951 -2.2829 107 203 119
10.7025 -7.8952 -2.2829 107 203 119
10.6906 -7.8953 -2.2829 107 203 119
10.6787 -7.8953 -2.2829 107 203 119
10.6668 -7.8954 -2.2829 107 203 119
10.6548 -7.8954 -2.2829 107 203 119
10.6429 -7.8955 -2.2829 107 203 119
10.6310 -7.8955 -2.2829 107 203 119
10.6190 -7.8956 -2.2829 107 203 119
10.6071 -7.8956 -2.2829 107 203 119
10.5952 -7.8957 -2.2829 107 203 119
10.5832 -7.8958 -2.2829 107 203 119
10.5713 -7.8958 -2.2829 107 203 119
10.5594 -7.8959 -2.2829 107 203 119
10.5474 -7.8959 -2.2829 107 203 119
10.5355 -7.8960 -2.2829 107 203 119
10.5236 -7.8960 -2.2829 107 203 119
10.5116 -7.8961 -2.2829 107 203 119
10.4997 -7.8961 -2.2829 107 203 119
10.4878 -7.8962 -2.2829 107 203 119
10.4759 -7.8963 -2.2829 107 203 119
10.4639 -7.8963 -2.2829 107 203 119
10.4520 -7.8964 -2.2829 107 203 119
10.4401 -7.8964 -2.2829 107 203 119
10.4281 -7.8965 -2.2829 107 203 119
10.4162 -7.8965 -2.2829 107 203 119
10.4043 -7.8966 -2.2829 107 203 119
10.3923 -7.8966 -2.2829 107 203 119
10.3804 -7.8967 -2.2829 107 203 119
10.3685 -7.8967 -2.2829 107 203 119
10.3565 -7.8968 -2.2829 107 203 119
10.3565 -7.8968 -2.2829 107 203 119
10.3567 -7.9266 -2.2829 107 203 119
10.3568 -7.9564 -2.2829 107 203 119
10.3570 -7.9862 -2.2829 107 203 119
10.3571 -8.0160 -2.2829 107 203 119
10.3572 -8.0459 -2.2829 107 203 119
10.3574 -8.0757 -2.2829 107 203 119
10.3575 -8.1055 -2.2829 107 203 119
10.3576 -8.1353 -2.2829 107 203 119
10.3578 -8.1651 -2.2829 107 203 119
10.3579 -8.1949 -2.2829 107 203 119
10.3581 -8.2247 -2.2829 107 203 119
10.3582 -8.2545 -2.2829 107 203 119
10.3583 -8.2843 -2.2829 107 203 119
10.3585 -8.3142 -2.2829 107 203 119
10.3586 -8.3440 -2.2829 107 203 119
10.3588 -8.3738 -2.2829 107 203 119
10.3589 -8.4036 -2.2829 107 203 119
10.3590 -8.4334 -2.2829 107 203 119
10.3592 -8.4632 -2.2829 107 203 119
10.3593 -8.4930 -2.2829 107 203 119
10.3594 -8.5228 -2.2829 107 203 119
10.3596 -8.5526 -2.2829 107 203 119
10.3597 -8.5825 -2.2829 107 203 119
10.3599 -8.6123 -2.2829 107 203 119
10.3600 -8.6421 -2.2829 107 203 119
10.3601 -8.6719 -2.2829 107 203 119
10.3603 -8.7017 -2.2829 107 203 119
10.3604 -8.7315 -2.2829 107 203 119
10.3605 -8.7613 -2.2829 107 203 119
10.3607 -8.7911 -2.2829 107 203 119
10.3608 -8.8209 -2.2829 107 203 119
10.3610 -8.8508 -2.2829 107 203 119
10.3611 -8.8806 -2.2829 107 203 119
10.3612 -8.9104 -2.2829 107 203 119
10.3614 -8.9402 -2.2829 107 203 119
10.3615 -8.9700 -2.2829 107 203 119
10.3616 -8.9998 -2.2829 107 203 119
10.3618 -9.0296 -2.2829 107 203 119
10.3619 -9.0594 -2.2829 107 203 119
10.3621 -9.0892 -2.2829 107 203 119
10.3622 -9.1191 -2.2829 107 203 119
10.3623 -9.1489 -2.2829 107 203 119
10.3625 -9.1787 -2.2829 107 203 119
10.3626 -9.2085 -2.2829 107 203 119
10.3627 -9.2383 -2.2829 107 203 119
10.3629 -9.2681 -2.2829 107 203 119
10.3630 -9.2979 -2.2829 107 203 119
10.3632 -9.3277 -2.2829 107 203 119
10.3633 -9.3575 -2.2829 107 203 119
10.3634 -9.3874 -2.2829 107 203 119
10.3636 -9.4172 -2.2829 107 203 119
10.3637 -9.4470 -2.2829 107 203 119
10.3639 -9.4768 -2.2829 107 203 119
10.3640 -9.5066 -2.2829 107 203 119
10.3641 -9.5364 -2.2829 107 203 119
10.3643 -9.5662 -2.2829 107 203 119
10.3644 -9.5960 -2.2829 107 203 119
10.3645 -9.6258 -2.2829 107 203 119
10.3647 -9.6557 -2.2829 107 203 119
10.3648 -9.6855 -2.2829 107 203 119
10.3650 -9.7153 -2.2829 107 203 119
10.3651 -9.7451 -2.2829 107 203 119
10.3652 -9.7749 -2.2829 107 203 119
10.3654 -9.8047 -2.2829 107 203 119
10.3655 -9.8345 -2.2829 107 203 119
10.3656 -9.8643 -2.2829 107 203 119
10.3658 -9.8941 -2.2829 107 203 119
10.3659 -9.9240 -2.2829 107 203 119
10.3661 -9.9538 -2.2829 107 203 119
10.3662 -9.9836 -2.2829 107 203 119
10.3663 -10.0134 -2.2829 107 203 119
10.3665 -10.0432 -2.2829 107 203 119
10.3666 -10.0730 -2.2829 107 203 119
10.3667 -10.1028 -2.2829 107 203 119
10.3669 -10.1326 -2.2829 107 203 119
10.3670 -10.1624 -2.2829 107 203 119
10.3672 -10.1923 -2.2829 107 203 119
10.3673 -10.2221 -2.2829 107 203 119
10.3674 -10.2519 -2.2829 107 203 119
10.3676 -10.2817 -2.2829 107 203 119
10.3677 -10.3115 -2.2829 107 203 119
10.3678 -10.3413 -2.2829 107 203 119
10.3680 -10.3711 -2.2829 107 203 119
10.3681 -10.4009 -2.2829 107 203 119
10.3683 -10.4307 -2.2829 107 203 119
10.3684 -10.4606 -2.2829 107 203 119
10.3685 -10.4904 -2.2829 107 203 119
10.3687 -10.5202 -2.2829 107 203 119
10.3688 -10.5500 -2.2829 107 203 119
10.3690 -10.5798 -2.2829 107 203 119
10.3691 -10.6096 -2.2829 107 203 119
10.3692 -10.6394 -2.2829 107 203 119
10.3694 -10.6692 -2.2829 107 203 119
10.3695 -10.6990 -2.2829 107 203 119
10.3696 -10.7289 -2.2829 107 203 119
10.3698 -10.7587 -2.2829 107 203 119
10.3699 -10.7885 -2.2829 107 203 119
10.3701 -10.8183 -2.2829 107 203 119
10.3702 -10.8481 -2.2829 107 203 119
10.3703 -10.8779 -2.2829 107 203 119
10.3705 -10.9077 -2.2829 107 203 119
10.3706 -10.9375 -2.2829 107 203 119
10.3707 -10.9673 -2.2829 107 203 119
10.3709 -10.9972 -2.2829 107 203 119
10.3710 -11.0270 -2.2829 107 203 119
10.3712 -11.0568 -2.2829 107 203 119
10.3713 -11.0866 -2.2829 107 203 119
10.3714 -11.1164 -2.2829 107 203 119
10.3716 -11.1462 -2.2829 107 203 119
10.3717 -11.1760 -2.2829 107 203 119
10.3718 -11.2058 -2.2829 107 203 119
10.3720 -11.2356 -2.2829 107 203 119
10.3721 -11.2655 -2.2829 107 203 119
10.3723 -11.2953 -2.2829 107 203 119
10.3724 -11.3251 -2.2829 107 203 119
10.3725 -11.3549 -2.2829 107 203 119
10.3727 -11.3847 -2.2829 107 203 119
10.3728 -11.4145 -2.2829 107 203 119
10.3730 -11.4443 -2.2829 107 203 119
10.3731 -11.4741 -2.2829 107 203 119
10.3732 -11.5039 -2.2829 107 203 119
10.3734 -11.5338 -2.2829 107 203 119
10.3735 -11.5636 -2.2829 107 203 119
10.3736 -11.5934 -2.2829 107 203 119
10.3738 -11.6232 -2.2829 107 203 119
10.3739 -11.6530 -2.2829 107 203 119
10.3741 -11.6828 -2.2829 107 203 119
10.3742 -11.7126 -2.2829 107 203 119
10.3743 -11.7424 -2.2829 107 203 119
10.3745 -11.7722 -2.2829 107 203 119
10.3746 -11.8021 -2.2829 107 203 119
10.3747 -11.8319 -2.2829 107 203 119
10.3749 -11.8617 -2.2829 107 203 119
10.3750 -11.8915 -2.2829 107 203 119
10.3752 -11.9213 -2.2829 107 203 119
10.3753 -11.9511 -2.2829 107 203 119
10.3754 -11.9809 -2.2829 107 203 119
10.3756 -12.0107 -2.2829 107 203 119
10.3757 -12.0405 -2.2829 107 203 119
10.3758 -12.0704 -2.2829 107 203 119
10.3760 -12.1002 -2.2829 107 203 119
10.3761 -12.1300 -2.2829 107 203 119
10.3763 -12.1598 -2.2829 107 203 119
10.3764 -12.1896 -2.2829 107 203 119
10.3765 -12.2194 -2.2829 107 203 119
10.3767 -12.2492 -2.2829 107 203 119
10.3768 -12.2790 -2.2829 107 203 119
10.3769 -12.3088 -2.2829 107 203 119
10.3771 -12.3386 -2.2829 107 203 119
10.3772 -12.3685 -2.2829 107 203 119
10.3774 -12.3983 -2.2829 107 203 119
10.3775 -12.4281 -2.2829 107 203 119
10.3776 -12.4579 -2.2829 107 203 119
10.3778 -12.4877 -2.2829 107 203 119
10.3779 -12.5175 -2.2829 107 203 119
10.3781 -12.5473 -2.2829 107 203 119
10.3782 -12.5771 -2.2829 107 203 119
10.3783 -12.6069 -2.2829 107 203 119
10.3785 -12.6368 -2.2829 107 203 119
10.3786 -12.6666 -2.2829 107 203 119
10.3787 -12.6964 -2.2829 107 203 119
10.3789 -12.7262 -2.2829 107 203 119
10.3790 -12.7560 -2.2829 107 203 119
10.3792 -12.7858 -2.2829 107 203 119
10.3793 -12.8156 -2.2829 107 203 119
10.3794 -12.8454 -2.2829 107 203 119
10.3796 -12.8752 -2.2829 107 203 119
10.3797 -12.9051 -2.2829 107 203 119
10.3798 -12.9349 -2.2829 107 203 119
10.3800 -12.9647 -2.2829 107 203 119
10.3801 -12.9945 -2.2829 107 203 119
10.3803 -13.0243 -2.2829 107 203 119
10.3804 -13.0541 -2.2829 107 203 119
10.3805 -13.0839 -2.2829 107 203 119
10.3807 -13.1137 -2.2829 107 203 119
10.3808 -13.1435 -2.2829 107 203 119
10.3809 -13.1734 -2.2829 107 203 119
10.3811 -13.2032 -2.2829 107 203 119
10.3812 -13.2330 -2.2829 107 203 119
10.3814 -13.2628 -2.2829 107 203 119
10.3815 -13.2926 -2.2829 107 203 119
10.3816 -13.3224 -2.2829 107 203 119
10.3818 -13.3522 -2.2829 107 203 119
10.3819 -13.3820 -2.2829 107 203 119
10.3820 -13.4118 -2.2829 107 203 119
10.3822 -13.4417 -2.2829 107 203 119
10.3823 -13.4715 -2.2829 107 203 119
10.3825 -13.5013 -2.2829 107 203 119
10.3826 -13.5311 -2.2829 107 203 119
10.3827 -13.5609 -2.2829 107 203 119
10.3829 -13.5907 -2.2829 107 203 119
10.3830 -13.6205 -2.2829 107 203 119
10.3832 -13.6503 -2.2829 107 203 119
10.3833 -13.6801 -2.2829 107 203 119
10.3834 -13.7100 -2.2829 107 203 119
10.3836 -13.7398 -2.2829 107 203 119
10.3837 -13.7696 -2.2829 107 203 119
10.3838 -13.7994 -2.2829 107 203 119
10.3840 -13.8292 -2.2829 107 203 119
10.3840 -13.8292 -2.2829 107 203 119
10.3959 -13.8291 -2.2829 107 203 119
10.4078 -13.8291 -2.2829 107 203 119
10.4198 -13.8290 -2.2829 107 203 119
10.4317 -13.8290 -2.2829 107 203 119
10.4436 -13.8289 -2.2829 107 203 119
10.4556 -13.8289 -2.2829 107 203 119
10.4675 -13.8288 -2.2829 107 203 119
10.4794 -13.8288 -2.2829 107 203 119
10.4914 -13.8287 -2.2829 107 203 119
10.5033 -13.8287 -2.2829 107 203 119
10.5152 -13.8286 -2.2829 107 203 119
10.5272 -13.8285 -2.2829 107 203 119
10.5391 -13.8285 -2.2829 107 203 119
10.5510 -13.8284 -2.2829 107 203 119
10.5629 -13.8284 -2.2829 107 203 119
10.5749 -13.8283 -2.2829 107 203 119
10.5868 -13.8283 -2.2829 107 203 119
10.5987 -13.8282 -2.2829 107 203 119
10.6107 -13.8282 -2.2829 107 203 119
10.6226 -13.8281 -2.2829 107 203 119
10.6345 -13.8280 -2.2829 107 203 119
10.6465 -13.8280 -2.2829 107 203 119
10.6584 -13.8279 -2.2829 107 203 119
10.6703 -13.8279 -2.2829 107 203 119
10.6823 -13.8278 -2.2829 107 203 119
10.6942 -13.8278 -2.2829 107 203 119
10.7061 -13.8277 -2.2829 107 203 119
10.7180 -13.8277 -2.2829 107 203 119
10.7300 -13.8276 -2.2829 107 203 119
10.7419 -13.8275 -2.2829 107 203 119
10.7538 -13.8275 -2.2829 107 203 119
10.7658 -13.8274 -2.2829 107 203 119
10.7777 -13.8274 -2.2829 107 203 119
10.7896 -13.8273 -2.2829 107 203 119
10.8016 -13.8273 -2.2829 107 203 119
10.8135 -13.8272 -2.2829 107 203 119
10.8254 -13.8272 -2.2829 107 203 119
10.8374 -13.8271 -2.2829 107 203 119
10.8493 -13.8271 -2.2829 107 203 119
10.8612 -13.8270 -2.2829 107 203 119
10.8732 -13.8269 -2.2829 107 203 119
10.8851 -13.8269 -2.2829 107 203 119
10.8970 -13.8268 -2.2829 107 203 119
10.9089 -13.8268 -2.2829 107 203 119
10.9209 -13.8267 -2.2829 107 203 119
10.9328 -13.8267 -2.2829 107 203 119
10.9447 -13.8266 -2.2829 107 203 119
10.9567 -13.8266 -2.2829 107 203 119
10.9686 -13.8265 -2.2829 107 203 119
10.9805 -13.8264 -2.2829 107 203 119
10.9925 -13.8264 -2.2829 107 203 119
11.0044 -13.8263 -2.2829 107 203 119
11.0163 -13.8263 -2.2829 107 203 119
11.0283 -13.8262 -2.2829 107 203 119
11.0402 -13.8262 -2.2829 107 203 119
11.0521 -13.8261 -2.2829 107 203 119
11.0640 -13.8261 -2.2829 107 203 119
11.0760 -13.8260 -2.2829 107 203 119
11.0879 -13.8259 -2.2829 107 203 119
11.0998 -13.8259 -2.2829 107 203 119
11.1118 -13.8258 -2.2829 107 203 119
11.1237 -13.8258 -2.2829 107 203 119
11.1356 -13.8257 -2.2829 107 203 119
11.1476 -13.8257 -2.2829 107 203 119
11.1595 -13.8256 -2.2829 107 203 119
11.1714 -13.8256 -2.2829 107 203 119
11.1834 -13.8255 -2.2829 107 203 119
11.1953 -13.8255 -2.2829 107 203 119
11.2072 -13.8254 -2.2829 107 203 119
11.2192 -13.8253 -2.2829 107 203 119
11.2311 -13.8253 -2.2829 107 203 119
11.2430 -13.8252 -2.2829 107 203 119
11.2549 -13.8252 -2.2829 107 203 119
11.2669 -13.8251 -2.2829 107 203 119
11.2788 -13.8251 -2.2829 107 203 119
11.2907 -13.8250 -2.2829 107 203 119
11.3027 -13.8250 -2.2829 107 203 119
11.3146 -13.8249 -2.2829 107 203 119
11.3265 -13.8248 -2.2829 107 203 119
11.3385 -13.8248 -2.2829 107 203 119
11.3504 -13.8247 -2.2829 107 203 119
11.3623 -13.8247 -2.2829 107 203 119
11.3743 -13.8246 -2.2829 107 203 119
11.3862 -13.8246 -2.2829 107 203 119
11.3981 -13.8245 -2.2829 107 203 119
11.4100 -13.8245 -2.2829 107 203 119
11.4220 -13.8244 -2.2829 107 203 119
11.4339 -13.8243 -2.2829 107 203 119
11.4458 -13.8243 -2.2829 107 203 119
11.4578 -13.8242 -2.2829 107 203 119
11.4697 -13.8242 -2.2829 107 203 119
11.4816 -13.8241 -2.2829 107 203 119
11.4936 -13.8241 -2.2829 107 203 119
11.5055 -13.8240 -2.2829 107 203 119
11.5174 -13.8240 -2.2829 107 203 119
11.5294 -13.8239 -2.2829 107 203 119
11.5413 -13.8239 -2.2829 107 203 119
11.5532 -13.8238 -2.2829 107 203 119
11.5652 -13.8237 -2.2829 107 203 119
11.5771 -13.8237 -2.2829 107 203 119
11.5890 -13.8236 -2.2829 107 203 119
11.6009 -13.8236 -2.2829 107 203 119
11.6129 -13.8235 -2.2829 107 203 119
11.6248 -13.8235 -2.2829 107 203 119
11.6367 -13.8234 -2.2829 107 203 119
11.6487 -13.8234 -2.2829 107 203 119
11.6606 -13.8233 -2.2829 107 203 119
11.6725 -13.8232 -2.2829 107 203 119
11.6845 -13.8232 -2.2829 107 203 119
11.6964 -13.8231 -2.2829 107 203 119
11.7083 -13.8231 -2.2829 107 203 119
11.7203 -13.8230 -2.2829 107 203 119
11.7322 -13.8230 -2.2829 107 203 119
11.7441 -13.8229 -2.2829 107 203 119
11.7561 -13.8229 -2.2829 107 203 119
11.7680 -13.8228 -2.2829 107 203 119
11.7799 -13.8227 -2.2829 107 203 119
11.7918 -13.8227 -2.2829 107 203 119
11.8038 -13.8226 -2.2829 107 203 119
11.8157 -13.8226 -2.2829 107 203 119
11.8276 -13.8225 -2.2829 107 203 119
11.8396 -13.8225 -2.2829 107 203 119
11.8515 -13.8224 -2.2829 107 203 119
11.8634 -13.8224 -2.2829 107 203 119
11.8754 -13.8223 -2.2829 107 203 119
11.8873 -13.8223 -2.2829 107 203 119
11.8992 -13.8222 -2.2829 107 203 119
11.9112 -13.8221 -2.2829 107 203 119
11.9231 -13.8221 -2.2829 107 203 119
11.9350 -13.8220 -2.2829 107 203 119
11.9469 -13.8220 -2.2829 107 203 119
11.9589 -13.8219 -2.2829 107 203 119
11.9708 -13.8219 -2.2829 107 203 119
11.9827 -13.8218 -2.2829 107 203 119
11.9947 -13.8218 -2.2829 107 203 119
12.0066 -13.8217 -2.2829 107 203 119
12.0185 -13.8216 -2.2829 107 203 119
12.0305 -13.8216 -2.2829 107 203 119
12.0424 -13.8215 -2.2829 107 203 119
12.0543 -13.8215 -2.2829 107 203 119
12.0663 -13.8214 -2.2829 107 203 119
12.0782 -13.8214 -2.2829 107 203 119
12.0901 -13.8213 -2.2829 107 203 119
12.1021 -13.8213 -2.2829 107 203 119
12.1140 -13.8212 -2.2829 107 203 119
12.1259 -13.8211 -2.2829 107 203 119
12.1378 -13.8211 -2.2829 107 203 119
12.1498 -13.8210 -2.2829 107 203 119
12.1617 -13.8210 -2.2829 107 203 119
12.1736 -13.8209 -2.2829 107 203 119
12.1856 -13.8209 -2.2829 107 203 119
12.1975 -13.8208 -2.2829 107 203 119
12.2094 -13.8208 -2.2829 107 203 119
12.2214 -13.8207 -2.2829 107 203 119
12.2333 -13.8207 -2.2829 107 203 119
12.2452 -13.8206 -2.2829 107 203 119
12.2572 -13.8205 -2.2829 107 203 119
12.2691 -13.8205 -2.2829 107 203 119
12.2810 -13.8204 -2.2829 107 203 119
12.2929 -13.8204 -2.2829 107 203 119
12.3049 -13.8203 -2.2829 107 203 119
12.3168 -13.8203 -2.2829 107 203 119
12.3287 -13.8202 -2.2829 107 203 119
12.3407 -13.8202 -2.2829 107 203 119
12.3526 -13.8201 -2.2829 107 203 119
12.3645 -13.8200 -2.2829 107 203 119
12.3765 -13.8200 -2.2829 107 203 119
12.3884 -13.8199 -2.2829 107 203 119
12.4003 -13.8199 -2.2829 107 203 119
12.4123 -13.8198 -2.2829 107 203 119
12.4242 -13.8198 -2.2829 107 203 119
12.4361 -13.8197 -2.2829 107 203 119
12.4481 -13.8197 -2.2829 107 203 119
12.4600 -13.8196 -2.2829 107 203 119
12.4719 -13.8195 -2.2829 107 203 119
12.4838 -13.8195 -2.2829 107 203 119
12.4958 -13.8194 -2.2829 107 203 119
12.5077 -13.8194 -2.2829 107 203 119
12.5196 -13.8193 -2.2829 107 203 119
12.5316 -13.8193 -2.2829 107 203 119
12.5435 -13.8192 -2.2829 107 203 119
12.5554 -13.8192 -2.2829 107 203 119
12.5674 -13.8191 -2.2829 107 203 119
12.5793 -13.8191 -2.2829 107 203 119
12.5912 -13.8190 -2.2829 107 203 119
12.6032 -13.8189 -2.2829 107 203 119
12.6151 -13.8189 -2.2829 107 203 119
12.6270 -13.8188 -2.2829 107 203 119
12.6389 -13.8188 -2.2829 107 203 119
12.6509 -13.8187 -2.2829 107 203 119
12.6628 -13.8187 -2.2829 107 203 119
12.6747 -13.8186 -2.2829 107 203 119
12.6867 -13.8186 -2.2829 107 203 119
12.6986 -13.8185 -2.2829 107 203 119
12.7105 -13.8184 -2.2829 107 203 119
12.7225 -13.8184 -2.2829 107 203 119
12.7344 -13.8183 -2.2829 107 203 119
12.7463 -13.8183 -2.2829 107 203 119
12.7583 -13.8182 -2.2829 107 203 119
12.7583 -13.8182 -0.3888 107 203 119
12.7581 -13.7884 -0.3888 107 203 119
12.7580 -13.7586 -0.3888 107 203 119
12.7578 -13.7288 -0.3888 107 203 119
12.7577 -13.6990 -0.3888 107 203 119
12.7576 -13.6692 -0.3888 107 203 119
12.7574 -13.6394 -0.3888 107 203 119
12.7573 -13.6095 -0.3888 107 203 119
12.7572 -13.5797 -0.3888 107 203 119
12.7570 -13.5499 -0.3888 107 203 119
12.7569 -13.5201 -0.3888 107 203 119
12.7567 -13.4903 -0.3888 107 203 119
12.7566 -13.4605 -0.3888 107 203 119
12.7565 -13.4307 -0.3888 107 203 119
12.7563 -13.4009 -0.3888 107 203 119
12.7562 -13.3711 -0.3888 107 203 119
12.7561 -13.3412 -0.3888 107 203 119
12.7559 -13.3114 -0.3888 107 203 119
12.7558 -13.2816 -0.3888 107 203 119
12.7556 -13.2518 -0.3888 107 203 119
12.7555 -13.2220 -0.3888 107 203 119
12.7554 -13.1922 -0.3888 107 203 119
12.7552 -13.1624 -0.3888 107 203 119
12.7551 -13.1326 -0.3888 107 203 119
12.7549 -13.1028 -0.3888 107 203 119
12.7548 -13.0729 -0.3888 107 203 119
12.7547 -13.0431 -0.3888 107 203 119
12.7545 -13.0133 -0.3888 107 203 119
12.7544 -12.9835 -0.3888 107 203 119
12.7543 -12.9537 -0.3888 107 203 119
12.7541 -12.9239 -0.3888 107 203 119
12.7540 -12.8941 -0.3888 107 203 119
12.7538 -12.8643 -0.3888 107 203 119
12.7537 -12.8345 -0.3888 107 203 119
12.7536 -12.8046 -0.3888 107 203 119
12.7534 -12.7748 -0.3888 107 203 119
12.7533 -12.7450 -0.3888 107 203 119
12.7532 -12.7152 -0.3888 107 203 119
12.7530 -12.6854 -0.3888 107 203 119
12.7529 -12.6556 -0.3888 107 203 119
12.7527 -12.6258 -0.3888 107 203 119
12.7526 -12.5960 -0.3888 107 203 119
12.7525 -12.5662 -0.3888 107 203 119
12.7523 -12.5363 -0.3888 107 203 119
12.7522 -12.5065 -0.3888 107 203 119
12.7521 -12.4767 -0.3888 107 203 119
12.7519 -12.4469 -0.3888 107 203 119
12.7518 -12.4171 -0.3888 107 203 119
12.7516 -12.3873 -0.3888 107 203 119
12.7515 -12.3575 -0.3888 107 203 119
12.7514 -12.3277 -0.3888 107 203 119
12.7512 -12.2979 -0.3888 107 203 119
12.7511 -12.2680 -0.3888 107 203 119
12.7510 -12.2382 -0.3888 107 203 119
12.7508 -12.2084 -0.3888 107 203 119
12.7507 -12.1786 -0.3888 107 203 119
12.7505 -12.1488 -0.3888 107 203 119
12.7504 -12.1190 -0.3888 107 203 119
12.7503 -12.0892 -0.3888 107 203 119
12.7501 -12.0594 -0.3888 107 203 119
12.7500 -12.0296 -0.3888 107 203 119
12.7498 -11.9997 -0.3888 107 203 119
12.7497 -11.9699 -0.3888 107 203 119
12.7496 -11.9401 -0.3888 107 203 119
12.7494 -11.9103 -0.3888 107 203 119
12.7493 -11.8805 -0.3888 107 203 119
12.7492 -11.8507 -0.3888 107 203 119
12.7490 -11.8209 -0.3888 107 203 119
12.7489 -11.7911 -0.3888 107 203 119
12.7487 -11.7613 -0.3888 107 203 119
12.7486 -11.7314 -0.3888 107 203 119
12.7485 -11.7016 -0.3888 107 203 119
12.7483 -11.6718 -0.3888 107 203 119
12.7482 -11.6420 -0.3888 107 203 119
12.7481 -11.6122 -0.3888 107 203 119
12.7479 -11.5824 -0.3888 107 203 119
12.7478 -11.5526 -0.3888 107 203 119
12.7476 -11.5228 -0.3888 107 203 119
12.7475 -11.4930 -0.3888 107 203 119
12.7474 -11.4632 -0.3888 107 203 119
12.7472 -11.4333 -0.3888 107 203 119
12.7471 -11.4035 -0.3888 107 203 119
12.7470 -11.3737 -0.3888 107 203 119
12.7468 -11.3439 -0.3888 107 203 119
12.7467 -11.3141 -0.3888 107 203 119
12.7465 -11.2843 -0.3888 107 203 119
12.7464 -11.2545 -0.3888 107 203 119
12.7463 -11.2247 -0.3888 107 203 119
12.7461 -11.1949 -0.3888 107 203 119
12.7460 -11.1650 -0.3888 107 203 119
12.7459 -11.1352 -0.3888 107 203 119
12.7457 -11.1054 -0.3888 107 203 119
12.7456 -11.0756 -0.3888 107 203 119
12.7454 -11.0458 -0.3888 107 203 119
12.7453 -11.0160 -0.3888 107 203 119
12.7452 -10.9862 -0.3888 107 203 119
12.7450 -10.9564 -0.3888 107 203 119
12.7449 -10.9266 -0.3888 107 203 119
12.7447 -10.8967 -0.3888 107 203 119
12.7446 -10.8669 -0.3888 107 203 119
12.7445 -10.8371 -0.3888 107 203 119
12.7443 -10.8073 -0.3888 107 203 119
12.7442 -10.7775 -0.3888 107 203 119
12.7441 -10.7477 -0.3888 107 203 119
12.7439 -10.7179 -0.3888 107 203 119
12.7438 -10.6881 -0.3888 107 203 119
12.7436 -10.6583 -0.3888 107 203 119
12.7435 -10.6284 -0.3888 107 203 119
12.7434 -10.5986 -0.3888 107 203 119
12.7432 -10.5688 -0.3888 107 203 119
12.7431 -10.5390 -0.3888 107 203 119
12.7430 -10.5092 -0.3888 107 203 119
12.7428 -10.4794 -0.3888 107 203 119
12.7427 -10.4496 -0.3888 107 203 119
12.7425 -10.4198 -0.3888 107 203 119
12.7424 -10.3900 -0.3888 107 203 119
12.7423 -10.3601 -0.3888 107 203 119
12.7421 -10.3303 -0.3888 107 203 119
12.7420 -10.3005 -0.3888 107 203 119
12.7419 -10.2707 -0.3888 107 203 119
12.7417 -10.2409 -0.3888 107 203 119
12.7416 -10.2111 -0.3888 107 203 119
12.7414 -10.1813 -0.3888 107 203 119
12.7413 -10.1515 -0.3888 107 203 119
12.7412 -10.1217 -0.3888 107 203 119
12.7410 -10.0918 -0.3888 107 203 119
12.7409 -10.0620 -0.3888 107 203 119
12.7408 -10.0322 -0.3888 107 203 119
12.7406 -10.0024 -0.3888 107 203 119
12.7405 -9.9726 -0.3888 107 203 119
12.7403 -9.9428 -0.3888 107 203 119
12.7402 -9.9130 -0.3888 107 203 119
12.7401 -9.8832 -0.3888 107 203 119
12.7399 -9.8534 -0.3888 107 203 119
12.7398 -9.8235 -0.3888 107 203 119
12.7396 -9.7937 -0.3888 107 203 119
12.7395 -9.7639 -0.3888 107 203 119
12.7394 -9.7341 -0.3888 107 203 119
12.7392 -9.7043 -0.3888 107 203 119
12.7391 -9.6745 -0.3888 107 203 119
12.7390 -9.6447 -0.3888 107 203 119
12.7388 -9.6149 -0.3888 107 203 119
12.7387 -9.5851 -0.3888 107 203 119
12.7385 -9.5552 -0.3888 107 203 119
12.7384 -9.5254 -0.3888 107 203 119
12.7383 -9.4956 -0.3888 107 203 119
12.7381 -9.4658 -0.3888 107 203 119
12.7380 -9.4360 -0.3888 107 203 119
12.7379 -9.4062 -0.3888 107 203 119
12.7377 -9.3764 -0.3888 107 203 119
12.7376 -9.3466 -0.3888 107 203 119
12.7374 -9.3168 -0.3888 107 203 119
12.7373 -9.2869 -0.3888 107 203 119
12.7372 -9.2571 -0.3888 107 203 119
12.7370 -9.2273 -0.3888 107 203 119
12.7369 -9.1975 -0.3888 107 203 119
12.7368 -9.1677 -0.3888 107 203 119
12.7366 -9.1379 -0.3888 107 203 119
12.7365 -9.1081 -0.3888 107 203 119
12.7363 -9.0783 -0.3888 107 203 119
12.7362 -9.0485 -0.3888 107 203 119
12.7361 -9.0186 -0.3888 107 203 119
12.7359 -8.9888 -0.3888 107 203 119
12.7358 -8.9590 -0.3888 107 203 119
12.7356 -8.9292 -0.3888 107 203 119
12.7355 -8.8994 -0.3888 107 203 119
12.7354 -8.8696 -0.3888 107 203 119
12.7352 -8.8398 -0.3888 107 203 119
12.7351 -8.8100 -0.3888 107 203 119
12.7350 -8.7802 -0.3888 107 203 119
12.7348 -8.7503 -0.3888 107 203 119
12.7347 -8.7205 -0.3888 107 203 119
12.7345 -8.6907 -0.3888 107 203 119
12.7344 -8.6609 -0.3888 107 203 119
12.7343 -8.6311 -0.3888 107 203 119
12.7341 -8.6013 -0.3888 107 203 119
12.7340 -8.5715 -0.3888 107 203 119
12.7339 -8.5417 -0.3888 107 203 119
12.7337 -8.5119 -0.3888 107 203 119
12.7336 -8.4820 -0.3888 107 203 119
12.7334 -8.4522 -0.3888 107 203 119
12.7333 -8.4224 -0.3888 107 203 119
12.7332 -8.3926 -0.3888 107 203 119
12.7330 -8.3628 -0.3888 107 203 119
12.7329 -8.3330 -0.3888 107 203 119
12.7328 -8.3032 -0.3888 107 203 119
12.7326 -8.2734 -0.3888 107 203 119
12.7325 -8.2436 -0.3888 107 203 119
12.7323 -8.2137 -0.3888 107 203 119
12.7322 -8.1839 -0.3888 107 203 119
12.7321 -8.1541 -0.3888 107 203 119
12.7319 -8.1243 -0.3888 107 203 119
12.7318 -8.0945 -0.3888 107 203 119
12.7317 -8.0647 -0.3888 107 203 119
12.7315 -8.0349 -0.3888 107 203 119
12.7314 -8.0051 -0.3888 107 203 119
12.7312 -7.9753 -0.3888 107 203 119
12.7311 -7.9454 -0.3888 107 203 119
12.7310 -7.9156 -0.3888 107 203 119
12.7308 -7.8858 -0.3888 107 203 119
12.7308 -7.8858 -0.3888 107 203 119
12.7189 -7.8859 -0.3888 107 203 119
12.7070 -7.8859 -0.3888 107 203 119
12.6950 -7.8860 -0.3888 107 203 119
12.6831 -7.8860 -0.3888 107 203 119
12.6712 -7.8861 -0.3888 107 203 119
12.6592 -7.8862 -0.3888 107 203 119
12.6473 -7.8862 -0.3888 107 203 119
12.6354 -7.8863 -0.3888 107 203 119
12.6234 -7.8863 -0.3888 107 203 119
12.6115 -7.8864 -0.3888 107 203 119
12.5996 -7.8864 -0.3888 107 203 119
12.5877 -7.8865 -0.3888 107 203 119
12.5757 -7.8865 -0.3888 107 203 119
12.5638 -7.8866 -0.3888 107 203 119
12.5519 -7.8867 -0.3888 107 203 119
12.5399 -7.8867 -0.3888 107 203 119
12.5280 -7.8868 -0.3888 107 203 119
12.5161 -7.8868 -0.3888 107 203 119
12.5041 -7.8869 -0.3888 107 203 119
12.4922 -7.8869 -0.3888 107 203 119
12.4803 -7.8870 -0.3888 107 203 119
12.4683 -7.8870 -0.3888 107 203 119
12.4564 -7.8871 -0.3888 107 203 119
12.4445 -7.8871 -0.3888 107 203 119
12.4325 -7.8872 -0.3888 107 203 119
12.4206 -7.8873 -0.3888 107 203 119
12.4087 -7.8873 -0.3888 107 203 119
12.3968 -7.8874 -0.3888 107 203 119
12.3848 -7.8874 -0.3888 107 203 119
12.3729 -7.8875 -0.3888 107 203 119
12.3610 -7.8875 -0.3888 107 203 119
12.3490 -7.8876 -0.3888 107 203 119
12.3371 -7.8876 -0.3888 107 203 119
12.3252 -7.8877 -0.3888 107 203 119
12.3132 -7.8878 -0.3888 107 203 119
12.3013 -7.8878 -0.3888 107 203 119
12.2894 -7.8879 -0.3888 107 203 119
12.2774 -7.8879 -0.3888 107 203 119
12.2655 -7.8880 -0.3888 107 203 119
12.2536 -7.8880 -0.3888 107 203 119
12.2417 -7.8881 -0.3888 107 203 119
12.2297 -7.8881 -0.3888 107 203 119
12.2178 -7.8882 -0.3888 107 203 119
12.2059 -7.8883 -0.3888 107 203 119
12.1939 -7.8883 -0.3888 107 203 119
12.1820 -7.8884 -0.3888 107 203 119
12.1701 -7.8884 -0.3888 107 203 119
12.1581 -7.8885 -0.3888 107 203 119
12.1462 -7.8885 -0.3888 107 203 119
12.1343 -7.8886 -0.3888 107 203 119
12.1223 -7.8886 -0.3888 107 203 119
12.1104 -7.8887 -0.3888 107 203 119
12.0985 -7.8887 -0.3888 107 203 119
12.0865 -7.8888 -0.3888 107 203 119
12.0746 -7.8889 -0.3888 107 203 119
12.0627 -7.8889 -0.3888 107 203 119
12.0508 -7.8890 -0.3888 107 203 119
12.0388 -7.8890 -0.3888 107 203 119
12.0269 -7.8891 -0.3888 107 203 119
12.0150 -7.8891 -0.3888 107 203 119
12.0030 -7.8892 -0.3888 107 203 119
11.9911 -7.8892 -0.3888 107 203 119
11.9792 -7.8893 -0.3888 107 203 119
11.9672 -7.8894 -0.3888 107 203 119
11.9553 -7.8894 -0.3888 107 203 119
11.9434 -7.8895 -0.3888 107 203 119
11.9314 -7.8895 -0.3888 107 203 119
11.9195 -7.8896 -0.3888 107 203 119
11.9076 -7.8896 -0.3888 107 203 119
11.8957 -7.8897 -0.3888 107 203 119
11.8837 -7.8897 -0.3888 107 203 119
11.8718 -7.8898 -0.3888 107 203 119
11.8599 -7.8899 -0.3888 107 203 119
11.8479 -7.8899 -0.3888 107 203 119
11.8360 -7.8900 -0.3888 107 203 119
11.8241 -7.8900 -0.3888 107 203 119
11.8121 -7.8901 -0.3888 107 203 119
11.8002 -7.8901 -0.3888 107 203 119
11.7883 -7.8902 -0.3888 107 203 119
11.7763 -7.8902 -0.3888 107 203 119
11.7644 -7.8903 -0.3888 107 203 119
11.7525 -7.8903 -0.3888 107 203 119
11.7405 -7.8904 -0.3888 107 203 119
11.7286 -7.8905 -0.3888 107 203 119
11.7167 -7.8905 -0.3888 107 203 119
11.7048 -7.8906 -0.3888 107 203 119
11.6928 -7.8906 -0.3888 107 203 119
11.6809 -7.8907 -0.3888 107 203 119
11.6690 -7.8907 -0.3888 107 203 119
11.6570 -7.8908 -0.3888 107 203 119
11.6451 -7.8908 -0.3888 107 203 119
11.6332 -7.8909 -0.3888 107 203 119
11.6212 -7.8910 -0.3888 107 203 119
11.6093 -7.8910 -0.3888 107 203 119
11.5974 -7.8911 -0.3888 107 203 119
11.5854 -7.8911 -0.3888 107 203 119
11.5735 -7.8912 -0.3888 107 203 119
11.5616 -7.8912 -0.3888 107 203 119
11.5497 -7.8913 -0.3888 107 203 119
11.5377 -7.8913 -0.3888 107 203 119
11.5258 -7.8914 -0.3888 107 203 119
11.5139 -7.8915 -0.3888 107 203 119
11.5019 -7.8915 -0.3888 107 203 119
11.4900 -7.8916 -0.3888 107 203 119
11.4781 -7.8916 -0.3888 107 203 119
11.4661 -7.8917 -0.3888 107 203 119
11.4542 -7.8917 -0.3888 107 203 119
11.4423 -7.8918 -0.3888 107 203 119
11.4303 -7.8918 -0.3888 107 203 119
11.4184 -7.8919 -0.3888 107 203 119
11.4065 -7.8919 -0.3888 107 203 119
11.3945 -7.8920 -0.3888 107 203 119
11.3826 -7.8921 -0.3888 107 203 119
11.3707 -7.8921 -0.3888 107 203 119
11.3588 -7.8922 -0.3888 107 203 119
11.3468 -7.8922 -0.3888 107 203 119
11.3349 -7.8923 -0.3888 107 203 119
11.3230 -7.8923 -0.3888 107 203 119
11.3110 -7.8924 -0.3888 107 203 119
11.2991 -7.8924 -0.3888 107 203 119
11.2872 -7.8925 -0.3888 107 203 119
11.2752 -7.8926 -0.3888 107 203 119
11.2633 -7.8926 -0.3888 107 203 119
11.2514 -7.8927 -0.3888 107 203 119
11.2394 -7.8927 -0.3888 107 203 119
11.2275 -7.8928 -0.3888 107 203 119
11.2156 -7.8928 -0.3888 107 203 119
11.2036 -7.8929 -0.3888 107 203 119
11.1917 -7.8929 -0.3888 107 203 119
11.1798 -7.8930 -0.3888 107 203 119
11.1679 -7.8931 -0.3888 107 203 119
11.1559 -7.8931 -0.3888 107 203 119
11.1440 -7.8932 -0.3888 107 203 119
11.1321 -7.8932 -0.3888 107 203 119
11.1201 -7.8933 -0.3888 107 203 119
11.1082 -7.8933 -0.3888 107 203 119
11.0963 -7.8934 -0.3888 107 203 119
11.0843 -7.8934 -0.3888 107 203 119
11.0724 -7.8935 -0.3888 107 203 119
11.0605 -7.8935 -0.3888 107 203 119
11.0485 -7.8936 -0.3888 107 203 119
11.0366 -7.8937 -0.3888 107 203 119
11.0247 -7.8937 -0.3888 107 203 119
11.0128 -7.8938 -0.3888 107 203 119
11.0008 -7.8938 -0.3888 107 203 119
10.9889 -7.8939 -0.3888 107 203 119
10.9770 -7.8939 -0.3888 107 203 119
10.9650 -7.8940 -0.3888 107 203 119
10.9531 -7.8940 -0.3888 107 203 119
10.9412 -7.8941 -0.3888 107 203 119
10.9292 -7.8942 -0.3888 107 203 119
10.9173 -7.8942 -0.3888 107 203 119
10.9054 -7.8943 -0.3888 107 203 119
10.8934 -7.8943 -0.3888 107 203 119
10.8815 -7.8944 -0.3888 107 203 119
10.8696 -7.8944 -0.3888 107 203 119
10.8576 -7.8945 -0.3888 107 203 119
10.8457 -7.8945 -0.3888 107 203 119
10.8338 -7.8946 -0.3888 107 203 119
10.8219 -7.8947 -0.3888 107 203 119
10.8099 -7.8947 -0.3888 107 203 119
10.7980 -7.8948 -0.3888 107 203 119
10.7861 -7.8948 -0.3888 107 203 119
10.7741 -7.8949 -0.3888 107 203 119
10.7622 -7.8949 -0.3888 107 203 119
10.7503 -7.8950 -0.3888 107 203 119
10.7383 -7.8950 -0.3888 107 203 119
10.7264 -7.8951 -0.3888 107 203 119
10.7145 -7.8951 -0.3888 107 203 119
10.7025 -7.8952 -0.3888 107 203 119
10.6906 -7.8953 -0.3888 107 203 119
10.6787 -7.8953 -0.3888 107 203 119
10.6668 -7.8954 -0.3888 107 203 119
10.6548 -7.8954 -0.3888 107 203 119
10.6429 -7.8955 -0.3888 107 203 119
10.6310 -7.8955 -0.3888 107 203 119
10.6190 -7.8956 -0.3888 107 203 119
10.6071 -7.8956 -0.3888 107 203 119
10.5952 -7.8957 -0.3888 107 203 119
10.5832 -7.8958 -0.3888 107 203 119
10.5713 -7.8958 -0.3888 107 203 119
10.5594 -7.8959 -0.3888 107 203 119
10.5474 -7.8959 -0.3888 107 203 119
10.5355 -7.8960 -0.3888 107 203 119
10.5236 -7.8960 -0.3888 107 203 119
10.5116 -7.8961 -0.3888 107 203 119
10.4997 -7.8961 -0.3888 107 203 119
10.4878 -7.8962 -0.3888 107 203 119
10.4759 -7.8963 -0.3888 107 203 119
