ply
format ascii 1.0
element vertex 1377
property float x
property float y
property float z
property uchar red
property uchar green
property uchar blue
end_header
-2.2099 0.1999 -0.2591 160 160 160
-2.2014 0.1999 -0.2062 160 160 160
-2.2115 0.2011 -0.1553 160 160 160
-2.2203 0.2027 -0.1040 160 160 160
-2.2202 0.2036 -0.0518 160 160 160
-2.2406 0.2057 -0.0000 160 160 160
-2.2300 0.2056 0.0520 160 160 160
-2.2479 0.2080 0.1053 160 160 160
-2.2469 0.2084 0.1578 160 160 160
-2.2426 0.2088 0.2101 160 160 160
-2.2627 0.2114 0.2658 160 160 160
-2.2559 0.2112 0.3184 160 160 160
-2.2519 0.2116 0.3716 160 160 160
-2.2698 0.2140 0.4295 160 160 160
-0.4470 0.0426 -0.2662 160 160 160
-0.4756 0.0455 -0.2684 160 160 160
-2.1726 0.2087 -1.1605 160 160 160
-2.1598 0.2082 -1.0894 160 160 160
-2.1808 0.2111 -1.0371 160 160 160
-2.1750 0.2108 -0.9729 160 160 160
-2.1803 0.2123 -0.9150 160 160 160
-2.1861 0.2135 -0.8577 160 160 160
-2.1847 0.2138 -0.7990 160 160 160
-2.1705 0.2132 -0.7369 160 160 160
-2.1946 0.2163 -0.6881 160 160 160
-2.1658 0.2138 -0.6240 160 160 160
-2.1757 0.2156 -0.5723 160 160 160
-2.1825 0.2165 -0.5197 160 160 160
-2.1901 0.2182 -0.4678 160 160 160
-2.2138 0.2212 -0.4192 160 160 160
-2.2200 0.2125 -0.3664 160 160 160
-2.2121 0.2122 -0.3123 160 160 160
-2.2166 0.2132 -0.2600 160 160 160
-2.2181 0.2143 -0.2079 160 160 160
-2.2004 0.2130 -0.1546 160 160 160
-2.2271 0.2163 -0.1043 160 160 160
-2.2229 0.2166 -0.0519 160 160 160
-2.2514 0.2199 0.0000 160 160 160
-2.2407 0.2195 0.0523 160 160 160
-2.2567 0.2221 0.1058 160 160 160
-2.2357 0.2202 0.1571 160 160 160
-2.2453 0.2220 0.2105 160 160 160
-2.2694 0.2253 0.2667 160 160 160
-2.2369 0.2223 0.3159 160 160 160
-2.2623 0.2256 0.3735 160 160 160
-2.2705 0.2272 0.4299 160 160 160
-0.4433 0.0448 -0.2642 160 160 160
-0.4736 0.0482 -0.2674 160 160 160
-2.1837 0.2225 -1.1671 160 160 160
-2.1853 0.2234 -1.1029 160 160 160
-2.1741 0.2230 -1.0345 160 160 160
-2.1792 0.2240 -0.9754 160 160 160
-2.1681 0.2237 -0.9104 160 160 160
-2.1922 0.2268 -0.8606 160 160 160
-2.1928 0.2274 -0.8024 160 160 160
-2.1881 0.2276 -0.7433 160 160 160
-2.2009 0.2297 -0.6905 160 160 160
-2.1855 0.2284 -0.6301 160 160 160
-2.1936 0.2300 -0.5774 160 160 160
-2.1774 0.2287 -0.5188 160 160 160
-2.2141 0.2335 -0.4732 160 160 160
-2.2106 0.2338 -0.4188 160 160 160
-2.2070 0.2242 -0.3644 160 160 160
-2.2128 0.2252 -0.3126 160 160 160
-2.2134 0.2259 -0.2598 160 160 160
-2.2089 0.2263 -0.2071 160 160 160
-2.2170 0.2274 -0.1558 160 160 160
-2.2239 0.2289 -0.1043 160 160 160
-2.2256 0.2299 -0.0519 160 160 160
-2.2520 0.2329 -0.0000 160 160 160
-2.2474 0.2334 0.0525 160 160 160
-2.2594 0.2354 0.1059 160 160 160
-2.2483 0.2347 0.1581 160 160 160
-2.2539 0.2360 0.2114 160 160 160
-2.2621 0.2377 0.2660 160 160 160
-2.2631 0.2381 0.3198 160 160 160
-2.2532 0.2379 0.3722 160 160 160
-2.2594 0.2392 0.4281 160 160 160
-0.4396 0.0470 -0.2622 160 160 160
-0.4630 0.0498 -0.2615 160 160 160
-2.1789 0.2348 -1.1652 160 160 160
-2.1716 0.2348 -1.0966 160 160 160
-2.1836 0.2368 -1.0396 160 160 160
-2.1997 0.2389 -0.9851 160 160 160
-2.1924 0.2389 -0.9212 160 160 160
-2.1909 0.2395 -0.8606 160 160 160
-2.1877 0.2396 -0.8010 160 160 160
-2.1773 0.2392 -0.7401 160 160 160
-2.1938 0.2418 -0.6887 160 160 160
-2.1670 0.2391 -0.6251 160 160 160
-2.1923 0.2427 -0.5774 160 160 160
-2.1741 0.2411 -0.5183 160 160 160
-2.2185 0.2468 -0.4745 160 160 160
-2.2209 0.2478 -0.4210 160 160 160
-2.2135 0.2377 -0.3657 160 160 160
-2.2154 0.2383 -0.3131 160 160 160
-2.2200 0.2396 -0.2607 160 160 160
-2.2214 0.2404 -0.2084 160 160 160
-2.2215 0.2408 -0.1563 160 160 160
-2.2265 0.2422 -0.1044 160 160 160
-2.2381 0.2442 -0.0523 160 160 160
-2.2566 0.2466 -0.0000 160 160 160
-2.2381 0.2455 0.0523 160 160 160
-2.2480 0.2472 0.1055 160 160 160
-2.2409 0.2468 0.1576 160 160 160
-2.2505 0.2487 0.2112 160 160 160
-2.2666 0.2513 0.2667 160 160 160
-2.2637 0.2514 0.3201 160 160 160
-2.2596 0.2518 0.3735 160 160 160
-2.2737 0.2541 0.4310 160 160 160
-0.4428 0.0501 -0.2642 160 160 160
-0.4591 0.0520 -0.2596 160 160 160
-2.1844 0.2484 -1.1690 160 160 160
-2.1683 0.2473 -1.0957 160 160 160
-2.1822 0.2498 -1.0396 160 160 160
-2.1891 0.2509 -0.9810 160 160 160
-2.1762 0.2501 -0.9150 160 160 160
-2.1820 0.2516 -0.8577 160 160 160
-2.1918 0.2531 -0.8031 160 160 160
-2.1909 0.2538 -0.7452 160 160 160
-2.1923 0.2547 -0.6887 160 160 160
-2.1751 0.2532 -0.6279 160 160 160
-2.1908 0.2558 -0.5774 160 160 160
-2.1591 0.2524 -0.5151 160 160 160
-2.2073 0.2589 -0.4724 160 160 160
-2.2097 0.2600 -0.4192 160 160 160
-2.2120 0.2508 -0.3657 160 160 160
-2.2178 0.2517 -0.3137 160 160 160
-2.2224 0.2530 -0.2612 160 160 160
-2.2417 0.2562 -0.2105 160 160 160
-2.2181 0.2538 -0.1561 160 160 160
-2.2230 0.2550 -0.1043 160 160 160
-2.2287 0.2566 -0.0521 160 160 160
-2.2591 0.2605 0.0000 160 160 160
-2.2405 0.2592 0.0524 160 160 160
-2.2505 0.2611 0.1057 160 160 160
-2.2533 0.2617 0.1586 160 160 160
-2.2530 0.2626 0.2116 160 160 160
-2.2730 0.2656 0.2676 160 160 160
-2.2662 0.2653 0.3207 160 160 160
-2.2541 0.2646 0.3729 160 160 160
-2.2799 0.2685 0.4325 160 160 160
-0.4356 0.0518 -0.2601 160 160 160
-0.4571 0.0545 -0.2586 160 160 160
-2.1866 0.2615 -1.1709 160 160 160
-2.1722 0.2604 -1.0984 160 160 160
-2.1789 0.2621 -1.0388 160 160 160
-2.1877 0.2636 -0.9810 160 160 160
-2.1803 0.2634 -0.9173 160 160 160
-2.1879 0.2650 -0.8606 160 160 160
-2.1717 0.2634 -0.7962 160 160 160
-2.1762 0.2649 -0.7407 160 160 160
-2.1946 0.2679 -0.6899 160 160 160
-2.1755 0.2658 -0.6285 160 160 160
-2.1855 0.2679 -0.5764 160 160 160
-2.1712 0.2666 -0.5183 160 160 160
-2.1902 0.2697 -0.4690 160 160 160
-2.2276 0.2749 -0.4229 160 160 160
-2.2144 0.2640 -0.3664 160 160 160
-2.2281 0.2660 -0.3154 160 160 160
-2.2388 0.2682 -0.2633 160 160 160
-2.2263 0.2673 -0.2092 160 160 160
-2.2107 0.2659 -0.1557 160 160 160
-2.2294 0.2688 -0.1047 160 160 160
-2.2351 0.2703 -0.0523 160 160 160
-2.2536 0.2730 0.0000 160 160 160
-2.2330 0.2713 0.0522 160 160 160
-2.2608 0.2755 0.1062 160 160 160
-2.2538 0.2751 0.1588 160 160 160
-2.2633 0.2770 0.2127 160 160 160
-2.2734 0.2790 0.2678 160 160 160
-2.2646 0.2784 0.3207 160 160 160
-2.2643 0.2790 0.3748 160 160 160
-2.2705 0.2806 0.4310 160 160 160
-0.4387 0.0547 -0.2622 160 160 160
-0.4620 0.0578 -0.2615 160 160 160
-2.1885 0.2745 -1.1727 160 160 160
-2.1741 0.2734 -1.1002 160 160 160
-2.1845 0.2754 -1.0422 160 160 160
-2.1771 0.2751 -0.9770 160 160 160
-2.1842 0.2767 -0.9196 160 160 160
-2.1919 0.2783 -0.8628 160 160 160
-2.1832 0.2777 -0.8010 160 160 160
-2.1690 0.2765 -0.7388 160 160 160
-2.2044 0.2820 -0.6934 160 160 160
-2.1759 0.2787 -0.6290 160 160 160
-2.2011 0.2827 -0.5810 160 160 160
-2.1985 0.2827 -0.5252 160 160 160
-2.2100 0.2851 -0.4736 160 160 160
-2.2201 0.2870 -0.4218 160 160 160
-2.2109 0.2764 -0.3661 160 160 160
-2.2266 0.2788 -0.3154 160 160 160
-2.2175 0.2786 -0.2609 160 160 160
-2.2385 0.2819 -0.2105 160 160 160
-2.2230 0.2804 -0.1567 160 160 160
-2.2418 0.2835 -0.1054 160 160 160
-2.2414 0.2842 -0.0525 160 160 160
-2.2440 0.2849 0.0000 160 160 160
-2.2452 0.2858 0.0525 160 160 160
-2.2533 0.2877 0.1059 160 160 160
-2.2443 0.2870 0.1582 160 160 160
-2.2478 0.2883 0.2114 160 160 160
-2.2756 0.2925 0.2683 160 160 160
-2.2669 0.2919 0.3212 160 160 160
-2.2666 0.2927 0.3755 160 160 160
-2.2669 0.2935 0.4307 160 160 160
-0.4401 0.0574 -0.2632 160 160 160
-0.4530 0.0594 -0.2566 160 160 160
-2.1764 0.2858 -1.1671 160 160 160
-2.1832 0.2874 -1.1056 160 160 160
-2.2008 0.2904 -1.0508 160 160 160
-2.1953 0.2901 -0.9859 160 160 160
-2.1881 0.2900 -0.9219 160 160 160
-2.2107 0.2938 -0.8708 160 160 160
-2.1927 0.2917 -0.8051 160 160 160
-2.1843 0.2913 -0.7446 160 160 160
-2.2047 0.2950 -0.6940 160 160 160
-2.1819 0.2923 -0.6312 160 160 160
-2.2014 0.2956 -0.5815 160 160 160
-2.1988 0.2957 -0.5257 160 160 160
-2.2296 0.3005 -0.4782 160 160 160
-2.2223 0.3003 -0.4225 160 160 160
-2.2132 0.2897 -0.3667 160 160 160
-2.2328 0.2927 -0.3165 160 160 160
-2.2216 0.2919 -0.2616 160 160 160
-2.2330 0.2943 -0.2101 160 160 160
-2.2273 0.2940 -0.1571 160 160 160
-2.2361 0.2958 -0.1052 160 160 160
-2.2478 0.2983 -0.0526 160 160 160
-2.2562 0.2997 0.0000 160 160 160
-2.2317 0.2972 0.0523 160 160 160
-2.2654 0.3025 0.1066 160 160 160
-2.2386 0.2993 0.1579 160 160 160
-2.2619 0.3033 0.2129 160 160 160
-2.2759 0.3060 0.2685 160 160 160
-2.2651 0.3049 0.3212 160 160 160
-2.2609 0.3051 0.3748 160 160 160
-2.2769 0.3082 0.4329 160 160 160
-0.4432 0.0605 -0.2652 160 160 160
-0.4613 0.0632 -0.2615 160 160 160
-2.1817 0.2993 -1.1709 160 160 160
-2.1762 0.2991 -1.1029 160 160 160
-2.1955 0.3026 -1.0490 160 160 160
-2.1991 0.3035 -0.9884 160 160 160
-2.1827 0.3020 -0.9204 160 160 160
-2.2089 0.3065 -0.8708 160 160 160
-2.1835 0.3032 -0.8024 160 160 160
-2.1938 0.3055 -0.7484 160 160 160
-2.2047 0.3078 -0.6946 160 160 160
-2.1858 0.3056 -0.6329 160 160 160
-2.1901 0.3070 -0.5789 160 160 160
-2.2086 0.3099 -0.5284 160 160 160
-2.1969 0.3091 -0.4715 160 160 160
-2.2303 0.3145 -0.4244 160 160 160
-2.2096 0.3023 -0.3664 160 160 160
-2.2330 0.3057 -0.3168 160 160 160
-2.2180 0.3045 -0.2614 160 160 160
-2.2312 0.3070 -0.2101 160 160 160
-2.2156 0.3053 -0.1564 160 160 160
-2.2403 0.3097 -0.1055 160 160 160
-2.2420 0.3106 -0.0525 160 160 160
-2.2505 0.3123 0.0000 160 160 160
-2.2280 0.3098 0.0522 160 160 160
-2.2617 0.3154 0.1065 160 160 160
-2.2566 0.3150 0.1593 160 160 160
-2.2542 0.3154 0.2124 160 160 160
-2.2721 0.3187 0.2683 160 160 160
-2.2575 0.3172 0.3204 160 160 160
-2.2650 0.3190 0.3758 160 160 160
-2.2731 0.3209 0.4325 160 160 160
-0.4394 0.0625 -0.2632 160 160 160
-0.4643 0.0661 -0.2635 160 160 160
-2.1852 0.3126 -1.1737 160 160 160
-2.1957 0.3147 -1.1137 160 160 160
-2.1901 0.3147 -1.0473 160 160 160
-2.1755 0.3134 -0.9786 160 160 160
-2.1956 0.3168 -0.9265 160 160 160
-2.2034 0.3186 -0.8693 160 160 160
-2.1892 0.3173 -0.8051 160 160 160
-2.1826 0.3168 -0.7452 160 160 160
-2.2162 0.3224 -0.6988 160 160 160
-2.1878 0.3190 -0.6340 160 160 160
-2.1998 0.3213 -0.5820 160 160 160
-2.2106 0.3237 -0.5294 160 160 160
-2.2491 0.3299 -0.4832 160 160 160
-2.2343 0.3287 -0.4255 160 160 160
-2.2254 0.3175 -0.3693 160 160 160
-2.2371 0.3199 -0.3176 160 160 160
-2.2261 0.3188 -0.2626 160 160 160
-2.2294 0.3200 -0.2101 160 160 160
-2.2296 0.3209 -0.1575 160 160 160
-2.2404 0.3227 -0.1056 160 160 160
-2.2382 0.3232 -0.0525 160 160 160
-2.2624 0.3275 0.0000 160 160 160
-2.2242 0.3224 0.0522 160 160 160
-2.2618 0.3287 0.1066 160 160 160
-2.2487 0.3274 0.1589 160 160 160
-2.2601 0.3299 0.2131 160 160 160
-2.2743 0.3325 0.2688 160 160 160
-2.2673 0.3323 0.3221 160 160 160
-2.2709 0.3335 0.3771 160 160 160
-2.2790 0.3352 0.4340 160 160 160
-0.4374 0.0649 -0.2621 160 160 160
-0.4485 0.0668 -0.2547 160 160 160
-2.1885 0.3262 -1.1765 160 160 160
-2.2027 0.3292 -1.1181 160 160 160
-2.1883 0.3274 -1.0473 160 160 160
-2.2008 0.3300 -0.9908 160 160 160
-2.1846 0.3285 -0.9227 160 160 160
-2.1978 0.3308 -0.8679 160 160 160
-2.1873 0.3300 -0.8051 160 160 160
-2.1901 0.3307 -0.7484 160 160 160
-2.1936 0.3321 -0.6923 160 160 160
-2.1897 0.3322 -0.6351 160 160 160
-2.1960 0.3337 -0.5815 160 160 160
-2.2029 0.3354 -0.5280 160 160 160
-2.1873 0.3335 -0.4703 160 160 160
-2.2382 0.3420 -0.4266 160 160 160
-2.2176 0.3297 -0.3683 160 160 160
-2.2313 0.3323 -0.3170 160 160 160
-2.2261 0.3322 -0.2628 160 160 160
-2.2315 0.3339 -0.2105 160 160 160
-2.2297 0.3339 -0.1576 160 160 160
-2.2365 0.3357 -0.1055 160 160 160
-2.2581 0.3394 -0.0530 160 160 160
-2.2585 0.3402 0.0000 160 160 160
-2.2499 0.3398 0.0528 160 160 160
-2.2619 0.3420 0.1067 160 160 160
-2.2488 0.3407 0.1590 160 160 160
-2.2622 0.3432 0.2135 160 160 160
-2.2605 0.3438 0.2674 160 160 160
-2.2811 0.3478 0.3243 160 160 160
-2.2709 0.3465 0.3774 160 160 160
-2.2809 0.3488 0.4347 160 160 160
-0.4387 0.0676 -0.2632 160 160 160
-0.4584 0.0709 -0.2606 160 160 160
-2.1989 0.3404 -1.1831 160 160 160
-2.1954 0.3406 -1.1155 160 160 160
-2.2007 0.3422 -1.0542 160 160 160
-2.1970 0.3423 -0.9900 160 160 160
-2.1899 0.3416 -0.9258 160 160 160
-2.2143 0.3464 -0.8751 160 160 160
-2.2021 0.3451 -0.8113 160 160 160
-2.2087 0.3465 -0.7555 160 160 160
-2.2066 0.3470 -0.6970 160 160 160
-2.1973 0.3464 -0.6378 160 160 160
-2.1997 0.3471 -0.5830 160 160 160
-2.1933 0.3469 -0.5261 160 160 160
-2.1968 0.3482 -0.4728 160 160 160
-2.2206 0.3528 -0.4236 160 160 160
-2.2352 0.3451 -0.3716 160 160 160
-2.2333 0.3457 -0.3176 160 160 160
-2.2399 0.3470 -0.2647 160 160 160
-2.2374 0.3474 -0.2112 160 160 160
-2.2336 0.3477 -0.1581 160 160 160
-2.2366 0.3485 -0.1056 160 160 160
-2.2600 0.3529 -0.0531 160 160 160
-2.2585 0.3536 0.0000 160 160 160
-2.2499 0.3526 0.0529 160 160 160
-2.2717 0.3569 0.1072 160 160 160
-2.2567 0.3553 0.1598 160 160 160
-2.2660 0.3576 0.2140 160 160 160
-2.2820 0.3605 0.2702 160 160 160
-2.2614 0.3581 0.3218 160 160 160
-2.2727 0.3606 0.3781 160 160 160
-2.2924 0.3641 0.4373 160 160 160
-0.4383 0.0703 -0.2632 160 160 160
-0.4562 0.0731 -0.2596 160 160 160
-2.1916 0.3526 -1.1802 160 160 160
-2.1881 0.3528 -1.1128 160 160 160
-2.1897 0.3538 -1.0499 160 160 160
-2.1987 0.3557 -0.9916 160 160 160
-2.2006 0.3567 -0.9312 160 160 160
-2.2140 0.3597 -0.8759 160 160 160
-2.1926 0.3566 -0.8085 160 160 160
-2.2067 0.3596 -0.7555 160 160 160
-2.2329 0.3649 -0.7060 160 160 160
-2.2123 0.3618 -0.6428 160 160 160
-2.1957 0.3598 -0.5825 160 160 160
-2.2066 0.3621 -0.5298 160 160 160
-2.1988 0.3616 -0.4736 160 160 160
-2.2341 0.3682 -0.4266 160 160 160
-2.2292 0.3578 -0.3709 160 160 160
-2.2332 0.3589 -0.3179 160 160 160
-2.2280 0.3587 -0.2635 160 160 160
-2.2314 0.3601 -0.2109 160 160 160
-2.2276 0.3599 -0.1578 160 160 160
-2.2444 0.3635 -0.1060 160 160 160
-2.2499 0.3650 -0.0529 160 160 160
-2.2821 0.3708 0.0000 160 160 160
-2.2380 0.3644 0.0527 160 160 160
-2.2637 0.3694 0.1070 160 160 160
-2.2545 0.3682 0.1597 160 160 160
-2.2738 0.3722 0.2150 160 160 160
-2.2857 0.3749 0.2709 160 160 160
-2.2847 0.3753 0.3254 160 160 160
-2.2784 0.3749 0.3794 160 160 160
-2.2825 0.3766 0.4359 160 160 160
-0.4310 0.0715 -0.2591 160 160 160
-0.4575 0.0761 -0.2606 160 160 160
-2.2052 0.3679 -1.1887 160 160 160
-2.1843 0.3651 -1.1119 160 160 160
-2.1984 0.3679 -1.0550 160 160 160
-2.2038 0.3695 -0.9949 160 160 160
-2.2039 0.3703 -0.9335 160 160 160
-2.2028 0.3706 -0.8722 160 160 160
-2.1943 0.3699 -0.8099 160 160 160
-2.1935 0.3702 -0.7516 160 160 160
-2.2327 0.3776 -0.7065 160 160 160
-2.1969 0.3723 -0.6389 160 160 160
-2.2070 0.3744 -0.5860 160 160 160
-2.1661 0.3682 -0.5206 160 160 160
-2.2005 0.3744 -0.4744 160 160 160
-2.2203 0.3786 -0.4244 160 160 160
-2.2311 0.3713 -0.3716 160 160 160
-2.2466 0.3742 -0.3201 160 160 160
-2.2318 0.3726 -0.2642 160 160 160
-2.2371 0.3743 -0.2116 160 160 160
-2.2275 0.3730 -0.1579 160 160 160
-2.2442 0.3767 -0.1061 160 160 160
-2.2518 0.3782 -0.0530 160 160 160
-2.2661 0.3815 0.0000 160 160 160
-2.2437 0.3786 0.0528 160 160 160
-2.2655 0.3827 0.1071 160 160 160
-2.2662 0.3835 0.1607 160 160 160
-2.2736 0.3852 0.2151 160 160 160
-2.2797 0.3871 0.2704 160 160 160
-2.2786 0.3878 0.3248 160 160 160
-2.2665 0.3860 0.3777 160 160 160
-2.2882 0.3907 0.4373 160 160 160
-0.0000 -0.0001 0.0000 160 160 160
-0.4520 0.0779 -0.2576 160 160 160
-2.2030 0.3805 -1.1887 160 160 160
-2.1963 0.3798 -1.1190 160 160 160
-2.1891 0.3793 -1.0516 160 160 160
-2.2070 0.3832 -0.9973 160 160 160
-2.1982 0.3825 -0.9319 160 160 160
-2.2264 0.3878 -0.8824 160 160 160
-2.1921 0.3825 -0.8099 160 160 160
-2.2080 0.3860 -0.7574 160 160 160
-2.2003 0.3855 -0.6970 160 160 160
-2.2042 0.3865 -0.6417 160 160 160
-2.2048 0.3876 -0.5860 160 160 160
-2.2042 0.3882 -0.5303 160 160 160
-2.2059 0.3893 -0.4761 160 160 160
-2.2335 0.3945 -0.4273 160 160 160
-2.2347 0.3847 -0.3725 160 160 160
-2.2425 0.3868 -0.3198 160 160 160
-2.2336 0.3858 -0.2646 160 160 160
-2.2310 0.3860 -0.2112 160 160 160
-2.2292 0.3866 -0.1582 160 160 160
-2.2578 0.3924 -0.1068 160 160 160
-2.2536 0.3920 -0.0531 160 160 160
-2.2698 0.3956 0.0000 160 160 160
-2.2514 0.3933 0.0531 160 160 160
-2.2710 0.3974 0.1075 160 160 160
-2.2620 0.3964 0.1606 160 160 160
-2.2831 0.4008 0.2163 160 160 160
-2.2969 0.4041 0.2727 160 160 160
-2.2918 0.4039 0.3271 160 160 160
-2.2798 0.4023 0.3803 160 160 160
-2.2839 0.4039 0.4370 160 160 160
-0.4353 0.0775 -0.2622 160 160 160
-0.4549 0.0811 -0.2596 160 160 160
-2.2059 0.3950 -1.1915 160 160 160
-2.2062 0.3953 -1.1253 160 160 160
-2.2010 0.3952 -1.0584 160 160 160
-2.2119 0.3980 -1.0006 160 160 160
-2.1922 0.3952 -0.9304 160 160 160
-2.2240 0.4014 -0.8824 160 160 160
-2.2119 0.4000 -0.8181 160 160 160
-2.2037 0.3992 -0.7567 160 160 160
-2.2148 0.4021 -0.7024 160 160 160
-2.2074 0.4010 -0.6433 160 160 160
-2.2062 0.4017 -0.5870 160 160 160
-2.2171 0.4045 -0.5340 160 160 160
-2.2073 0.4034 -0.4769 160 160 160
-2.2292 0.4079 -0.4269 160 160 160
-2.2188 0.3960 -0.3703 160 160 160
-2.2460 0.4016 -0.3206 160 160 160
-2.2312 0.3994 -0.2646 160 160 160
-2.2287 0.3998 -0.2112 160 160 160
-2.2367 0.4020 -0.1589 160 160 160
-2.2513 0.4054 -0.1067 160 160 160
-2.2551 0.4065 -0.0532 160 160 160
-2.2792 0.4116 0.0000 160 160 160
-2.2548 0.4081 0.0532 160 160 160
-2.2627 0.4103 0.1072 160 160 160
-2.2693 0.4119 0.1613 160 160 160
-2.2707 0.4129 0.2153 160 160 160
-2.2866 0.4167 0.2718 160 160 160
-2.2757 0.4156 0.3251 160 160 160
-2.2579 0.4127 0.3771 160 160 160
-2.2794 0.4175 0.4366 160 160 160
-0.4332 0.0797 -0.2611 160 160 160
-0.4510 0.0831 -0.2576 160 160 160
-0.4706 0.0867 -0.2544 160 160 160
-2.2093 0.4086 -1.1280 160 160 160
-2.2040 0.4084 -1.0610 160 160 160
-2.2169 0.4113 -1.0038 160 160 160
-2.1882 0.4068 -0.9296 160 160 160
-2.2234 0.4140 -0.8832 160 160 160
-2.2023 0.4104 -0.8154 160 160 160
-2.2146 0.4135 -0.7612 160 160 160
-2.2125 0.4140 -0.7024 160 160 160
-2.2147 0.4147 -0.6461 160 160 160
-2.1983 0.4126 -0.5855 160 160 160
-2.2053 0.4142 -0.5317 160 160 160
-2.2205 0.4178 -0.4803 160 160 160
-2.2424 0.4229 -0.4299 160 160 160
-2.2204 0.4091 -0.3709 160 160 160
-2.2516 0.4153 -0.3218 160 160 160
-2.2308 0.4121 -0.2649 160 160 160
-2.2499 0.4165 -0.2135 160 160 160
-2.2442 0.4158 -0.1596 160 160 160
-2.2393 0.4158 -0.1062 160 160 160
-2.2548 0.4195 -0.0532 160 160 160
-2.2690 0.4225 0.0000 160 160 160
-2.2663 0.4227 0.0535 160 160 160
-2.2683 0.4240 0.1076 160 160 160
-2.2710 0.4249 0.1616 160 160 160
-2.2744 0.4264 0.2159 160 160 160
-2.2765 0.4276 0.2709 160 160 160
-2.2754 0.4277 0.3254 160 160 160
-2.2789 0.4292 0.3810 160 160 160
-2.2886 0.4318 0.4388 160 160 160
-0.4360 0.0827 -0.2632 160 160 160
-0.4488 0.0854 -0.2566 160 160 160
-0.4753 0.0904 -0.2572 160 160 160
-2.1893 0.4179 -1.1190 160 160 160
-2.1981 0.4204 -1.0593 160 160 160
-2.2035 0.4222 -0.9989 160 160 160
-2.2057 0.4230 -0.9381 160 160 160
-2.2174 0.4261 -0.8817 160 160 160
-2.2072 0.4249 -0.8181 160 160 160
-2.2178 0.4275 -0.7631 160 160 160
-2.2120 0.4271 -0.7030 160 160 160
-2.2348 0.4322 -0.6527 160 160 160
-2.2149 0.4289 -0.5906 160 160 160
-2.2544 0.4373 -0.5441 160 160 160
-2.2066 0.4289 -0.4778 160 160 160
-2.2340 0.4349 -0.4288 160 160 160
-2.2354 0.4250 -0.3738 160 160 160
-2.2393 0.4267 -0.3204 160 160 160
-2.2480 0.4288 -0.2672 160 160 160
-2.2376 0.4276 -0.2125 160 160 160
-2.2300 0.4269 -0.1588 160 160 160
-2.2428 0.4298 -0.1065 160 160 160
-2.2503 0.4320 -0.0532 160 160 160
-2.2763 0.4377 0.0000 160 160 160
-2.2657 0.4361 0.0536 160 160 160
-2.2834 0.4404 0.1085 160 160 160
-2.2664 0.4379 0.1614 160 160 160
-2.2757 0.4405 0.2163 160 160 160
-2.2953 0.4447 0.2734 160 160 160
-2.2864 0.4439 0.3273 160 160 160
-2.2860 0.4447 0.3826 160 160 160
-2.2784 0.4436 0.4373 160 160 160
-0.4271 0.0837 -0.2581 160 160 160
-0.4431 0.0869 -0.2537 160 160 160
-0.4835 0.0951 -0.2619 160 160 160
-2.1956 0.4328 -1.1235 160 160 160
-2.1939 0.4327 -1.0584 160 160 160
-2.2030 0.4354 -0.9997 160 160 160
-2.2177 0.4391 -0.9443 160 160 160
-2.2149 0.4389 -0.8817 160 160 160
-2.1936 0.4354 -0.8140 160 160 160
-2.2153 0.4403 -0.7631 160 160 160
-2.2245 0.4428 -0.7077 160 160 160
-2.2362 0.4460 -0.6538 160 160 160
-2.2105 0.4413 -0.5901 160 160 160
-2.2213 0.4441 -0.5367 160 160 160
-2.2233 0.4451 -0.4819 160 160 160
-2.2489 0.4509 -0.4321 160 160 160
-2.2348 0.4387 -0.3742 160 160 160
-2.2504 0.4422 -0.3223 160 160 160
-2.2395 0.4409 -0.2665 160 160 160
-2.2351 0.4409 -0.2125 160 160 160
-2.2393 0.4421 -0.1596 160 160 160
-2.2520 0.4454 -0.1070 160 160 160
-2.2400 0.4435 -0.0530 160 160 160
-2.2698 0.4502 0.0000 160 160 160
-2.2690 0.4507 0.0537 160 160 160
-2.2906 0.4554 0.1089 160 160 160
-2.2698 0.4522 0.1618 160 160 160
-2.2732 0.4532 0.2163 160 160 160
-2.2870 0.4569 0.2727 160 160 160
-2.2800 0.4563 0.3268 160 160 160
-2.2835 0.4575 0.3826 160 160 160
-2.2913 0.4598 0.4403 160 160 160
-0.4216 0.0851 -0.2550 160 160 160
-0.4426 0.0894 -0.2537 160 160 160
-0.4864 0.0984 -0.2638 160 160 160
-2.2036 0.4471 -1.1289 160 160 160
-2.2108 0.4493 -1.0679 160 160 160
-2.2093 0.4497 -1.0038 160 160 160
-2.2188 0.4522 -0.9458 160 160 160
-2.2251 0.4542 -0.8868 160 160 160
-2.2041 0.4508 -0.8188 160 160 160
-2.2053 0.4515 -0.7606 160 160 160
-2.2257 0.4564 -0.7089 160 160 160
-2.2260 0.4573 -0.6516 160 160 160
-2.2116 0.4546 -0.5911 160 160 160
-2.2454 0.4625 -0.5432 160 160 160
-2.1918 0.4522 -0.4757 160 160 160
-2.2423 0.4634 -0.4314 160 160 160
-2.2381 0.4523 -0.3751 160 160 160
-2.2420 0.4540 -0.3215 160 160 160
-2.2527 0.4567 -0.2684 160 160 160
-2.2501 0.4568 -0.2142 160 160 160
-2.2347 0.4546 -0.1594 160 160 160
-2.2494 0.4580 -0.1070 160 160 160
-2.2511 0.4591 -0.0533 160 160 160
-2.2711 0.4640 0.0000 160 160 160
-2.2665 0.4635 0.0537 160 160 160
-2.2742 0.4658 0.1083 160 160 160
-2.2788 0.4676 0.1627 160 160 160
-2.2803 0.4688 0.2172 160 160 160
-2.2960 0.4725 0.2741 160 160 160
-2.2559 0.4649 0.3237 160 160 160
-2.2903 0.4729 0.3842 160 160 160
-2.2924 0.4737 0.4410 160 160 160
-0.4261 0.0886 -0.2581 160 160 160
-0.4438 0.0924 -0.2547 160 160 160
-0.4927 0.1027 -0.2676 160 160 160
-2.2062 0.4612 -1.1316 160 160 160
-2.2063 0.4620 -1.0670 160 160 160
-2.2032 0.4619 -1.0022 160 160 160
-2.2052 0.4630 -0.9412 160 160 160
-2.2242 0.4678 -0.8875 160 160 160
-2.1958 0.4622 -0.8167 160 160 160
-2.2137 0.4669 -0.7644 160 160 160
-2.2323 0.4716 -0.7119 160 160 160
-2.2176 0.4688 -0.6499 160 160 160
-2.2165 0.4694 -0.5931 160 160 160
-2.2046 0.4673 -0.5340 160 160 160
-2.2237 0.4722 -0.4832 160 160 160
-2.2492 0.4784 -0.4332 160 160 160
-2.2239 0.4633 -0.3732 160 160 160
-2.2471 0.4685 -0.3226 160 160 160
-2.2479 0.4695 -0.2681 160 160 160
-2.2455 0.4699 -0.2140 160 160 160
-2.2418 0.4695 -0.1601 160 160 160
-2.2486 0.4718 -0.1071 160 160 160
-2.2678 0.4765 -0.0538 160 160 160
-2.2645 0.4762 0.0000 160 160 160
-2.2638 0.4770 0.0537 160 160 160
-2.2559 0.4762 0.1075 160 160 160
-2.2625 0.4779 0.1617 160 160 160
-2.2658 0.4793 0.2161 160 160 160
-2.2950 0.4863 0.2744 160 160 160
-2.2803 0.4837 0.3276 160 160 160
-2.2973 0.4882 0.3859 160 160 160
-2.3068 0.4910 0.4444 160 160 160
-0.4205 0.0899 -0.2550 160 160 160
-0.4433 0.0950 -0.2547 160 160 160
-0.4852 0.1041 -0.2638 160 160 160
-2.2017 0.4736 -1.1307 160 160 160
-2.2054 0.4751 -1.0679 160 160 160
-2.2004 0.4745 -1.0022 160 160 160
-2.2025 0.4756 -0.9412 160 160 160
-2.2287 0.4822 -0.8904 160 160 160
-2.2079 0.4782 -0.8222 160 160 160
-2.2183 0.4812 -0.7670 160 160 160
-2.2295 0.4843 -0.7119 160 160 160
-2.2262 0.4840 -0.6532 160 160 160
-2.2081 0.4811 -0.5916 160 160 160
-2.2342 0.4870 -0.5418 160 160 160
-2.1884 0.4778 -0.4761 160 160 160
-2.2368 0.4892 -0.4314 160 160 160
-2.2385 0.4798 -0.3761 160 160 160
-2.2483 0.4824 -0.3231 160 160 160
-2.2529 0.4841 -0.2691 160 160 160
-2.2369 0.4815 -0.2135 160 160 160
-2.2527 0.4853 -0.1611 160 160 160
-2.2517 0.4860 -0.1074 160 160 160
-2.2689 0.4904 -0.0539 160 160 160
-2.2695 0.4910 0.0000 160 160 160
-2.2726 0.4925 0.0540 160 160 160
-2.2843 0.4959 0.1090 160 160 160
-2.2792 0.4952 0.1631 160 160 160
-2.2747 0.4950 0.2172 160 160 160
-2.2864 0.4983 0.2737 160 160 160
-2.2794 0.4972 0.3279 160 160 160
-2.3021 0.5031 0.3872 160 160 160
-2.2790 0.4989 0.4396 160 160 160
-0.0000 -0.0001 0.0000 160 160 160
-0.4325 0.0953 -0.2488 160 160 160
-0.4743 0.1047 -0.2582 160 160 160
-2.2111 0.4888 -1.1370 160 160 160
-2.2009 0.4875 -1.0670 160 160 160
-2.2012 0.4884 -1.0038 160 160 160
-2.1944 0.4872 -0.9389 160 160 160
-2.2168 0.4930 -0.8868 160 160 160
-2.2105 0.4925 -0.8243 160 160 160
-2.2173 0.4943 -0.7676 160 160 160
-2.2267 0.4973 -0.7119 160 160 160
-2.2138 0.4951 -0.6505 160 160 160
-2.2128 0.4953 -0.5936 160 160 160
-2.2294 0.4999 -0.5413 160 160 160
-2.2294 0.5007 -0.4857 160 160 160
-2.2512 0.5064 -0.4347 160 160 160
-2.2472 0.4951 -0.3781 160 160 160
-2.2415 0.4947 -0.3226 160 160 160
-2.2540 0.4980 -0.2695 160 160 160
-2.2360 0.4948 -0.2136 160 160 160
-2.2439 0.4973 -0.1607 160 160 160
-2.2547 0.5002 -0.1077 160 160 160
-2.2544 0.5008 -0.0536 160 160 160
-2.2725 0.5058 0.0000 160 160 160
-2.2639 0.5042 0.0539 160 160 160
-2.2853 0.5099 0.1092 160 160 160
-2.2684 0.5070 0.1625 160 160 160
-2.2912 0.5129 0.2191 160 160 160
-2.3029 0.5159 0.2760 160 160 160
-2.2919 0.5142 0.3301 160 160 160
-2.2818 0.5129 0.3842 160 160 160
-2.2895 0.5150 0.4422 160 160 160
-0.4195 0.0949 -0.2550 160 160 160
-0.4405 0.0998 -0.2537 160 160 160
-0.4753 0.1078 -0.2591 160 160 160
-2.1978 0.4997 -1.1316 160 160 160
-2.2174 0.5050 -1.0764 160 160 160
-2.2125 0.5043 -1.0103 160 160 160
-2.2203 0.5069 -0.9512 160 160 160
-2.2229 0.5082 -0.8904 160 160 160
-2.2003 0.5035 -0.8215 160 160 160
-2.2034 0.5050 -0.7638 160 160 160
-2.2293 0.5118 -0.7137 160 160 160
-2.2129 0.5084 -0.6510 160 160 160
-2.2174 0.5102 -0.5956 160 160 160
-2.2171 0.5106 -0.5390 160 160 160
-2.1884 0.5048 -0.4773 160 160 160
-2.2443 0.5184 -0.4340 160 160 160
-2.2423 0.5081 -0.3777 160 160 160
-2.2579 0.5120 -0.3254 160 160 160
-2.2568 0.5127 -0.2702 160 160 160
-2.2563 0.5133 -0.2159 160 160 160
-2.2527 0.5129 -0.1615 160 160 160
-2.2556 0.5145 -0.1079 160 160 160
-2.2749 0.5197 -0.0542 160 160 160
-2.2617 0.5170 0.0000 160 160 160
-2.2765 0.5213 0.0542 160 160 160
-2.2744 0.5216 0.1088 160 160 160
-2.2673 0.5204 0.1627 160 160 160
-2.2940 0.5275 0.2196 160 160 160
-2.3017 0.5299 0.2762 160 160 160
-2.2947 0.5288 0.3310 160 160 160
-2.2902 0.5285 0.3862 160 160 160
-2.3075 0.5334 0.4462 160 160 160
-0.0000 -0.0001 0.0000 160 160 160
-0.4280 0.0996 -0.2468 160 160 160
-0.4782 0.1114 -0.2610 160 160 160
-2.2088 0.5156 -1.1388 160 160 160
-2.2144 0.5177 -1.0764 160 160 160
-2.2203 0.5195 -1.0152 160 160 160
-2.2137 0.5187 -0.9497 160 160 160
-2.2345 0.5245 -0.8962 160 160 160
-2.2120 0.5196 -0.8270 160 160 160
-2.2096 0.5199 -0.7670 160 160 160
-2.2374 0.5271 -0.7173 160 160 160
-2.2511 0.5308 -0.6632 160 160 160
-2.2181 0.5238 -0.5967 160 160 160
-2.2160 0.5238 -0.5395 160 160 160
-2.2082 0.5227 -0.4823 160 160 160
-2.2471 0.5328 -0.4351 160 160 160
-2.2471 0.5228 -0.3790 160 160 160
-2.2492 0.5237 -0.3245 160 160 160
-2.2422 0.5228 -0.2688 160 160 160
-2.2669 0.5296 -0.2172 160 160 160
-2.2516 0.5263 -0.1617 160 160 160
-2.2643 0.5301 -0.1084 160 160 160
-2.2776 0.5341 -0.0543 160 160 160
-2.2879 0.5370 0.0000 160 160 160
-2.2676 0.5331 0.0541 160 160 160
-2.2870 0.5384 0.1096 160 160 160
-2.2799 0.5371 0.1638 160 160 160
-2.2774 0.5375 0.2183 160 160 160
-2.2889 0.5409 0.2751 160 160 160
-2.2859 0.5407 0.3301 160 160 160
-2.3045 0.5459 0.3891 160 160 160
-2.3024 0.5462 0.4459 160 160 160
-0.0000 -0.0001 0.0000 160 160 160
-0.4274 0.1021 -0.2468 160 160 160
-0.4706 0.1125 -0.2572 160 160 160
-2.2110 0.5295 -1.1415 160 160 160
-2.2096 0.5300 -1.0756 160 160 160
-2.2155 0.5319 -1.0144 160 160 160
-2.2358 0.5376 -0.9605 160 160 160
-2.2351 0.5382 -0.8977 160 160 160
-2.2346 0.5385 -0.8366 160 160 160
-2.2176 0.5352 -0.7708 160 160 160
-2.2436 0.5422 -0.7202 160 160 160
-2.2255 0.5383 -0.6566 160 160 160
-2.2245 0.5388 -0.5992 160 160 160
-2.2393 0.5429 -0.5460 160 160 160
-2.1995 0.5340 -0.4811 160 160 160
-2.2421 0.5453 -0.4347 160 160 160
-2.2382 0.5343 -0.3781 160 160 160
-2.2615 0.5403 -0.3268 160 160 160
-2.2507 0.5386 -0.2702 160 160 160
-2.2522 0.5398 -0.2160 160 160 160
-2.2331 0.5356 -0.1606 160 160 160
-2.2651 0.5442 -0.1086 160 160 160
-2.2667 0.5453 -0.0541 160 160 160
-2.2847 0.5501 0.0000 160 160 160
-2.2703 0.5475 0.0542 160 160 160
-2.2780 0.5501 0.1093 160 160 160
-2.2806 0.5512 0.1641 160 160 160
-2.2877 0.5537 0.2196 160 160 160
-2.3070 0.5593 0.2776 160 160 160
-2.2809 0.5534 0.3299 160 160 160
-2.2975 0.5582 0.3885 160 160 160
-2.3126 0.5627 0.4485 160 160 160
-0.4245 0.1038 -0.2591 160 160 160
-0.4336 0.1062 -0.2508 160 160 160
-0.4699 0.1151 -0.2572 160 160 160
-2.2080 0.5423 -1.1415 160 160 160
-2.2259 0.5476 -1.0850 160 160 160
-2.2088 0.5438 -1.0128 160 160 160
-2.2165 0.5464 -0.9535 160 160 160
-2.2157 0.5470 -0.8911 160 160 160
-2.2149 0.5472 -0.8304 160 160 160
-2.2164 0.5485 -0.7715 160 160 160
-2.2572 0.5594 -0.7256 160 160 160
-2.2542 0.5591 -0.6659 160 160 160
-2.2289 0.5535 -0.6012 160 160 160
-2.2268 0.5535 -0.5436 160 160 160
-2.2325 0.5557 -0.4890 160 160 160
-2.2408 0.5586 -0.4351 160 160 160
-2.2524 0.5515 -0.3810 160 160 160
-2.2469 0.5506 -0.3251 160 160 160
-2.2534 0.5530 -0.2709 160 160 160
-2.2568 0.5546 -0.2168 160 160 160
-2.2571 0.5551 -0.1625 160 160 160
-2.2619 0.5571 -0.1086 160 160 160
-2.2771 0.5617 -0.0544 160 160 160
-2.2893 0.5652 0.0000 160 160 160
-2.2536 0.5572 0.0539 160 160 160
-2.2942 0.5681 0.1102 160 160 160
-2.2677 0.5619 0.1634 160 160 160
-2.2961 0.5697 0.2207 160 160 160
-2.3019 0.5721 0.2774 160 160 160
-2.2968 0.5713 0.3326 160 160 160
-2.3000 0.5729 0.3894 160 160 160
-2.2979 0.5731 0.4462 160 160 160
-0.4172 0.1045 -0.2550 160 160 160
-0.4279 0.1074 -0.2478 160 160 160
-0.4796 0.1204 -0.2629 160 160 160
-2.2152 0.5576 -1.1468 160 160 160
-2.2226 0.5602 -1.0850 160 160 160
-2.2215 0.5603 -1.0201 160 160 160
-2.2080 0.5579 -0.9512 160 160 160
-2.2197 0.5617 -0.8940 160 160 160
-2.2136 0.5605 -0.8311 160 160 160
-2.2223 0.5635 -0.7747 160 160 160
-2.2243 0.5648 -0.7161 160 160 160
-2.2342 0.5678 -0.6610 160 160 160
-2.2200 0.5650 -0.5997 160 160 160
-2.2329 0.5686 -0.5459 160 160 160
-2.2255 0.5676 -0.4882 160 160 160
-2.2471 0.5739 -0.4369 160 160 160
-2.2607 0.5674 -0.3829 160 160 160
-2.2512 0.5653 -0.3262 160 160 160
-2.2579 0.5679 -0.2718 160 160 160
-2.2535 0.5676 -0.2168 160 160 160
-2.2615 0.5700 -0.1631 160 160 160
-2.2587 0.5702 -0.1086 160 160 160
-2.2777 0.5758 -0.0545 160 160 160
-2.2840 0.5778 0.0000 160 160 160
-2.2716 0.5755 0.0544 160 160 160
-2.2928 0.5817 0.1103 160 160 160
-2.2761 0.5779 0.1642 160 160 160
-2.2851 0.5811 0.2200 160 160 160
-2.3120 0.5888 0.2790 160 160 160
-2.2992 0.5858 0.3335 160 160 160
-2.2986 0.5867 0.3898 160 160 160
-2.3346 0.5967 0.4540 160 160 160
-0.4182 0.1073 -0.2560 160 160 160
-0.0000 -0.0001 0.0000 160 160 160
-0.4772 0.1228 -0.2619 160 160 160
-2.2275 0.5744 -1.1549 160 160 160
-2.2176 0.5726 -1.0841 160 160 160
-2.2306 0.5769 -1.0258 160 160 160
-2.2350 0.5783 -0.9643 160 160 160
-2.2417 0.5809 -0.9042 160 160 160
-2.2357 0.5801 -0.8407 160 160 160
-2.2319 0.5797 -0.7791 160 160 160
-2.2431 0.5833 -0.7232 160 160 160
-2.2196 0.5781 -0.6576 160 160 160
-2.2279 0.5806 -0.6027 160 160 160
-2.2277 0.5815 -0.5455 160 160 160
-2.2258 0.5817 -0.4890 160 160 160
-2.2627 0.5923 -0.4406 160 160 160
-2.2535 0.5794 -0.3823 160 160 160
-2.2595 0.5818 -0.3279 160 160 160
-2.2604 0.5824 -0.2725 160 160 160
-11.0061 2.8402 -1.0605 160 160 160
-11.0008 2.8428 -0.7946 160 160 160
-11.0171 2.8491 -0.5308 160 160 160
-2.2783 0.5900 -0.0546 160 160 160
-2.2961 0.5954 0.0000 160 160 160
-2.2740 0.5900 0.0546 160 160 160
-2.2894 0.5950 0.1103 160 160 160
-2.2957 0.5974 0.1659 160 160 160
-2.2893 0.5966 0.2207 160 160 160
-2.3047 0.6011 0.2785 160 160 160
-2.2900 0.5981 0.3326 160 160 160
-2.3046 0.6028 0.3914 160 160 160
-2.2969 0.6012 0.4473 160 160 160
-0.0000 -0.0001 0.0000 160 160 160
-0.4367 0.1150 -0.2537 160 160 160
-0.4730 0.1247 -0.2600 160 160 160
-2.2085 0.5835 -1.1468 160 160 160
-2.2194 0.5871 -1.0867 160 160 160
-2.2201 0.5877 -1.0225 160 160 160
-2.2192 0.5884 -0.9589 160 160 160
-2.2273 0.5913 -0.8999 160 160 160
-2.2306 0.5927 -0.8400 160 160 160
-2.2321 0.5939 -0.7804 160 160 160
-2.2396 0.5966 -0.7232 160 160 160
-2.2421 0.5977 -0.6654 160 160 160
-2.2245 0.5939 -0.6027 160 160 160
-2.2468 0.6003 -0.5510 160 160 160
-2.2205 0.5940 -0.4886 160 160 160
-2.2649 0.6068 -0.4418 160 160 160
-2.2406 0.5903 -0.3806 160 160 160
-2.2694 0.5982 -0.3298 160 160 160
-2.2627 0.5974 -0.2732 160 160 160
-10.9910 2.9059 -1.0607 160 160 160
-10.9940 2.9087 -0.7953 160 160 160
-10.9982 2.9140 -0.5307 160 160 160
-2.2728 0.6030 -0.0546 160 160 160
-2.3081 0.6128 0.0000 160 160 160
-2.2821 0.6067 0.0548 160 160 160
-2.2974 0.6115 0.1109 160 160 160
-2.2827 0.6082 0.1652 160 160 160
-2.2993 0.6133 0.2220 160 160 160
-2.3087 0.6167 0.2795 160 160 160
-2.3057 0.6165 0.3354 160 160 160
-2.2915 0.6134 0.3898 160 160 160
-2.3198 0.6218 0.4525 160 160 160
-0.4202 0.1130 -0.2581 160 160 160
-0.4243 0.1144 -0.2468 160 160 160
-0.4757 0.1283 -0.2619 160 160 160
-2.2102 0.5975 -1.1495 160 160 160
-2.2177 0.6004 -1.0875 160 160 160
-2.2327 0.6049 -1.0298 160 160 160
-2.2032 0.5976 -0.9535 160 160 160
-2.2024 0.5983 -0.8911 160 160 160
-2.2271 0.6054 -0.8400 160 160 160
-2.2195 0.6042 -0.7772 160 160 160
-2.2307 0.6081 -0.7214 160 160 160
-2.2294 0.6081 -0.6626 160 160 160
-2.2192 0.6062 -0.6022 160 160 160
-2.2377 0.6116 -0.5496 160 160 160
-2.2152 0.6063 -0.4882 160 160 160
-2.2480 0.6161 -0.4392 160 160 160
-2.2485 0.6061 -0.3826 160 160 160
-2.2621 0.6102 -0.3293 160 160 160
-2.2553 0.6092 -0.2728 160 160 160
-10.9721 2.9686 -1.0605 160 160 160
-10.9694 2.9701 -0.7947 160 160 160
-10.9562 2.9706 -0.5295 160 160 160
-2.2905 0.6218 -0.0551 160 160 160
-2.2891 0.6218 0.0000 160 160 160
-2.2748 0.6188 0.0548 160 160 160
-2.2901 0.6239 0.1107 160 160 160
-2.2791 0.6213 0.1652 160 160 160
-2.2995 0.6276 0.2224 160 160 160
-2.3032 0.6295 0.2792 160 160 160
-2.2963 0.6280 0.3346 160 160 160
-2.3070 0.6318 0.3930 160 160 160
-2.3144 0.6348 0.4522 160 160 160
-0.4229 0.1164 -0.2601 160 160 160
-0.4320 0.1191 -0.2517 160 160 160
-0.4699 0.1297 -0.2591 160 160 160
-2.2240 0.6150 -1.1585 160 160 160
-2.2334 0.6185 -1.0969 160 160 160
-2.2274 0.6173 -1.0290 160 160 160
-2.2478 0.6237 -0.9743 160 160 160
-2.2258 0.6184 -0.9021 160 160 160
-2.2398 0.6227 -0.8461 160 160 160
-2.2233 0.6190 -0.7798 160 160 160
-2.2474 0.6266 -0.7280 160 160 160
-2.2296 0.6220 -0.6637 160 160 160
-2.2232 0.6211 -0.6042 160 160 160
-2.2378 0.6255 -0.5506 160 160 160
-2.2079 0.6181 -0.4873 160 160 160
-2.2596 0.6333 -0.4421 160 160 160
-2.2564 0.6222 -0.3845 160 160 160
-2.2490 0.6206 -0.3279 160 160 160
-2.2594 0.6243 -0.2737 160 160 160
-10.9472 3.0298 -1.0598 160 160 160
-10.9462 3.0314 -0.7943 160 160 160
-10.9427 3.0345 -0.5296 160 160 160
-2.2734 0.6312 -0.0548 160 160 160
-2.2893 0.6361 0.0000 160 160 160
-2.2827 0.6351 0.0550 160 160 160
-2.2979 0.6402 0.1113 160 160 160
-2.2870 0.6376 0.1660 160 160 160
-2.2921 0.6398 0.2220 160 160 160
-2.3034 0.6438 0.2797 160 160 160
-2.2965 0.6424 0.3351 160 160 160
-2.3071 0.6462 0.3936 160 160 160
-2.3220 0.6512 0.4544 160 160 160
-0.0000 -0.0001 0.0000 160 160 160
-0.4195 0.1183 -0.2449 160 160 160
-0.4639 0.1308 -0.2563 160 160 160
-2.2204 0.6278 -1.1585 160 160 160
-2.2211 0.6289 -1.0927 160 160 160
-2.2273 0.6310 -1.0307 160 160 160
-2.2175 0.6291 -0.9628 160 160 160
-2.2348 0.6349 -0.9071 160 160 160
-2.2344 0.6351 -0.8455 160 160 160
-2.2197 0.6318 -0.7798 160 160 160
-2.2400 0.6384 -0.7268 160 160 160
-2.2334 0.6370 -0.6659 160 160 160
-2.2195 0.6338 -0.6042 160 160 160
-2.2511 0.6433 -0.5547 160 160 160
-2.2119 0.6330 -0.4890 160 160 160
-2.2748 0.6517 -0.4458 160 160 160
-2.2699 0.6401 -0.3874 160 160 160
-2.2701 0.6405 -0.3315 160 160 160
-2.2596 0.6384 -0.2742 160 160 160
-10.9392 3.0955 -1.0607 160 160 160
-10.9363 3.0967 -0.7949 160 160 160
-10.9231 3.0970 -0.5295 160 160 160
-2.2735 0.6453 -0.0549 160 160 160
-2.2971 0.6525 0.0000 160 160 160
-2.2771 0.6477 0.0550 160 160 160
-2.3000 0.6551 0.1115 160 160 160
-2.2853 0.6513 0.1662 160 160 160
-2.2979 0.6558 0.2230 160 160 160
-2.3149 0.6614 0.2816 160 160 160
-2.3003 0.6578 0.3363 160 160 160
-2.3091 0.6612 0.3946 160 160 160
-2.3220 0.6656 0.4551 160 160 160
-0.4150 0.1194 -0.2560 160 160 160
-0.4256 0.1227 -0.2488 160 160 160
-0.4751 0.1371 -0.2629 160 160 160
-2.2306 0.6447 -1.1657 160 160 160
-2.2175 0.6417 -1.0927 160 160 160
-2.2323 0.6463 -1.0347 160 160 160
-2.2174 0.6429 -0.9643 160 160 160
-2.2364 0.6492 -0.9093 160 160 160
-2.2091 0.6418 -0.8372 160 160 160
-2.2269 0.6478 -0.7836 160 160 160
-2.2437 0.6535 -0.7292 160 160 160
-2.2278 0.6492 -0.6654 160 160 160
-2.2288 0.6503 -0.6078 160 160 160
-2.2399 0.6541 -0.5529 160 160 160
-2.2194 0.6488 -0.4915 160 160 160
-2.2409 0.6560 -0.4399 160 160 160
-2.2510 0.6488 -0.3849 160 160 160
-2.2722 0.6553 -0.3323 160 160 160
-2.2578 0.6519 -0.2744 160 160 160
-10.9153 3.1566 -1.0602 160 160 160
-10.9106 3.1573 -0.7943 160 160 160
-10.9109 3.1616 -0.5298 160 160 160
-2.2851 0.6629 -0.0552 160 160 160
-2.2991 0.6673 0.0000 160 160 160
-2.2733 0.6608 0.0550 160 160 160
-2.3000 0.6694 0.1117 160 160 160
-2.2872 0.6661 0.1666 160 160 160
-2.2960 0.6696 0.2232 160 160 160
-2.3035 0.6727 0.2806 160 160 160
-2.3117 0.6754 0.3385 160 160 160
-2.2977 0.6722 0.3933 160 160 160
-2.3143 0.6779 0.4544 160 160 160
-0.4225 0.1242 -0.2611 160 160 160
-0.4248 0.1251 -0.2488 160 160 160
-0.4675 0.1377 -0.2591 160 160 160
-2.2216 0.6558 -1.1630 160 160 160
-2.2363 0.6610 -1.1038 160 160 160
-2.2443 0.6644 -1.0420 160 160 160
-2.2278 0.6598 -0.9705 160 160 160
-2.2506 0.6675 -0.9166 160 160 160
-2.2143 0.6576 -0.8407 160 160 160
-2.2196 0.6596 -0.7823 160 160 160
-2.2417 0.6669 -0.7298 160 160 160
-2.2202 0.6614 -0.6643 160 160 160
-2.2306 0.6650 -0.6093 160 160 160
-2.2434 0.6695 -0.5547 160 160 160
-2.2099 0.6603 -0.4902 160 160 160
-2.2520 0.6738 -0.4429 160 160 160
-2.2661 0.6672 -0.3881 160 160 160
-2.2683 0.6688 -0.3323 160 160 160
-2.2731 0.6707 -0.2767 160 160 160
-10.8855 3.2161 -1.0590 160 160 160
-10.9012 3.2248 -0.7950 160 160 160
-10.9001 3.2266 -0.5302 160 160 160
-2.2737 0.6739 -0.0550 160 160 160
-2.3009 0.6828 0.0000 160 160 160
-2.2790 0.6767 0.0552 160 160 160
-2.3076 0.6861 0.1123 160 160 160
-2.3004 0.6847 0.1679 160 160 160
-2.2938 0.6836 0.2233 160 160 160
-2.3282 0.6944 0.2841 160 160 160
-2.3095 0.6896 0.3388 160 160 160
-2.3125 0.6915 0.3966 160 160 160
-2.3217 0.6947 0.4566 160 160 160
-0.4234 0.1272 -0.2622 160 160 160
-0.4241 0.1277 -0.2488 160 160 160
-0.4785 0.1440 -0.2657 160 160 160
-2.2245 0.6711 -1.1666 160 160 160
-2.2307 0.6735 -1.1029 160 160 160
-2.2439 0.6783 -1.0437 160 160 160
-2.2344 0.6762 -0.9751 160 160 160
-2.2360 0.6772 -0.9122 160 160 160
-2.2248 0.6747 -0.8461 160 160 160
-2.2392 0.6794 -0.7907 160 160 160
-2.2305 0.6776 -0.7274 160 160 160
-2.2366 0.6803 -0.6703 160 160 160
-2.2341 0.6799 -0.6113 160 160 160
-2.2358 0.6814 -0.5538 160 160 160
-2.2155 0.6755 -0.4923 160 160 160
-2.2576 0.6892 -0.4447 160 160 160
-2.2640 0.6812 -0.3884 160 160 160
-2.2663 0.6825 -0.3326 160 160 160
-2.2614 0.6818 -0.2758 160 160 160
-10.8815 3.2852 -1.0605 160 160 160
-0.0000 -0.0001 0.0000 160 160 160
-2.2699 0.6865 -0.1106 160 160 160
-2.2851 0.6916 -0.0554 160 160 160
-2.2969 0.6961 0.0000 160 160 160
-2.2922 0.6954 0.0556 160 160 160
-2.3055 0.7000 0.1124 160 160 160
-2.2926 0.6968 0.1676 160 160 160
-2.2996 0.6994 0.2243 160 160 160
-2.2975 0.6997 0.2809 160 160 160
-2.3094 0.7042 0.3393 160 160 160
-2.3124 0.7055 0.3972 160 160 160
-2.3271 0.7109 0.4585 160 160 160
-0.4194 0.1286 -0.2601 160 160 160
-0.4234 0.1300 -0.2488 160 160 160
-0.5368 0.1649 -0.2985 160 160 160
-2.2241 0.6845 -1.1684 160 160 160
-2.2354 0.6890 -1.1072 160 160 160
-2.2436 0.6920 -1.0453 160 160 160
-2.2166 0.6845 -0.9689 160 160 160
-2.2516 0.6961 -0.9202 160 160 160
-2.2210 0.6871 -0.8461 160 160 160
-2.2407 0.6940 -0.7926 160 160 160
-2.2521 0.6983 -0.7357 160 160 160
-2.2364 0.6939 -0.6714 160 160 160
-2.2376 0.6951 -0.6134 160 160 160
-2.2356 0.6949 -0.5547 160 160 160
-2.2266 0.6930 -0.4956 160 160 160
-2.2742 0.7087 -0.4488 160 160 160
-2.2621 0.6945 -0.3887 160 160 160
-2.2775 0.6996 -0.3348 160 160 160
-2.2823 0.7020 -0.2788 160 160 160
-2.2609 0.6963 -0.2207 160 160 160
-2.2746 0.7009 -0.1664 160 160 160
-2.2699 0.7004 -0.1107 160 160 160
-2.2925 0.7082 -0.0557 160 160 160
-2.2987 0.7107 0.0000 160 160 160
-2.2883 0.7083 0.0556 160 160 160
-2.3110 0.7162 0.1129 160 160 160
-2.3077 0.7155 0.1690 160 160 160
-2.3088 0.7168 0.2256 160 160 160
-2.3238 0.7224 0.2846 160 160 160
-2.3053 0.7170 0.3393 160 160 160
-2.2951 0.7148 0.3950 160 160 160
-2.3286 0.7261 0.4596 160 160 160
-0.4153 0.1299 -0.2581 160 160 160
-0.4193 0.1313 -0.2468 160 160 160
-0.0000 -0.0001 0.0000 160 160 160
-2.2321 0.7011 -1.1747 160 160 160
-2.2314 0.7017 -1.1072 160 160 160
-2.2377 0.7046 -1.0445 160 160 160
-2.2390 0.7055 -0.9805 160 160 160
-2.2422 0.7073 -0.9181 160 160 160
-2.2384 0.7070 -0.8543 160 160 160
-2.2403 0.7079 -0.7939 160 160 160
-2.2481 0.7114 -0.7357 160 160 160
-2.2488 0.7125 -0.6764 160 160 160
-2.2373 0.7093 -0.6144 160 160 160
-2.2445 0.7123 -0.5579 160 160 160
-2.2560 0.7169 -0.5031 160 160 160
-2.2550 0.7174 -0.4458 160 160 160
-2.2656 0.7099 -0.3900 160 160 160
-2.2790 0.7150 -0.3357 160 160 160
-2.2820 0.7164 -0.2792 160 160 160
-2.2702 0.7136 -0.2220 160 160 160
-2.2705 0.7146 -0.1664 160 160 160
-2.2715 0.7152 -0.1110 160 160 160
-2.2883 0.7213 -0.0557 160 160 160
-2.3097 0.7289 0.0000 160 160 160
-2.2842 0.7214 0.0556 160 160 160
-2.3068 0.7294 0.1128 160 160 160
-2.2977 0.7274 0.1686 160 160 160
-2.3046 0.7305 0.2256 160 160 160
-2.3290 0.7387 0.2858 160 160 160
-2.3350 0.7414 0.3443 160 160 160
-2.3284 0.7402 0.4014 160 160 160
-2.3262 0.7399 0.4599 160 160 160
-0.4163 0.1331 -0.2591 160 160 160
-0.4219 0.1350 -0.2488 160 160 160
-0.0000 -0.0001 0.0000 160 160 160
-2.2245 0.7133 -1.1729 160 160 160
-2.2548 0.7240 -1.1209 160 160 160
-2.2475 0.7219 -1.0510 160 160 160
-2.2452 0.7221 -0.9851 160 160 160
-2.2522 0.7252 -0.9239 160 160 160
-2.2396 0.7215 -0.8564 160 160 160
-2.2469 0.7249 -0.7977 160 160 160
-2.2620 0.7306 -0.7417 160 160 160
-2.2391 0.7235 -0.6747 160 160 160
-2.2385 0.7243 -0.6159 160 160 160
-2.2385 0.7247 -0.5575 160 160 160
-2.2277 0.7221 -0.4977 160 160 160
-2.2284 0.7231 -0.4414 160 160 160
-2.2689 0.7258 -0.3913 160 160 160
-2.2749 0.7281 -0.3357 160 160 160
-2.2815 0.7312 -0.2797 160 160 160
-2.2811 0.7319 -0.2235 160 160 160
-2.2758 0.7306 -0.1671 160 160 160
-2.2729 0.7306 -0.1113 160 160 160
-2.2916 0.7374 -0.0559 160 160 160
-2.3055 0.7424 0.0000 160 160 160
-2.2875 0.7374 0.0558 160 160 160
-2.3082 0.7450 0.1131 160 160 160
-2.2954 0.7412 0.1687 160 160 160
-2.3249 0.7516 0.2280 160 160 160
-2.3322 0.7550 0.2867 160 160 160
-2.3063 0.7470 0.3407 160 160 160
-2.3279 0.7550 0.4021 160 160 160
-2.3142 0.7513 0.4585 160 160 160
-0.4171 0.1360 -0.2601 160 160 160
-0.4261 0.1390 -0.2517 160 160 160
-2.2359 0.7302 -1.2507 160 160 160
-2.2254 0.7277 -1.1756 160 160 160
-2.2334 0.7313 -1.1123 160 160 160
-2.2363 0.7326 -1.0477 160 160 160
-2.2516 0.7386 -0.9897 160 160 160
-2.2532 0.7398 -0.9261 160 160 160
-2.2301 0.7327 -0.8543 160 160 160
-2.2427 0.7377 -0.7977 160 160 160
-2.2522 0.7416 -0.7399 160 160 160
-2.2441 0.7396 -0.6775 160 160 160
-2.2489 0.7419 -0.6199 160 160 160
-2.2362 0.7382 -0.5579 160 160 160
-2.2290 0.7367 -0.4990 160 160 160
-2.2708 0.7513 -0.4506 160 160 160
-2.2739 0.7418 -0.3930 160 160 160
-2.2801 0.7443 -0.3371 160 160 160
-2.2697 0.7418 -0.2788 160 160 160
-2.2731 0.7438 -0.2231 160 160 160
-2.2696 0.7429 -0.1670 160 160 160
-2.2934 0.7518 -0.1125 160 160 160
-2.3083 0.7575 -0.0564 160 160 160
-2.3088 0.7581 0.0000 160 160 160
-2.2945 0.7542 0.0561 160 160 160
-2.3057 0.7589 0.1132 160 160 160
-2.3119 0.7613 0.1702 160 160 160
-2.3130 0.7626 0.2272 160 160 160
-2.3296 0.7689 0.2869 160 160 160
-2.3264 0.7684 0.3443 160 160 160
-2.3178 0.7664 0.4011 160 160 160
-2.3304 0.7714 0.4625 160 160 160
-0.4229 0.1406 -0.2642 160 160 160
-0.4235 0.1409 -0.2508 160 160 160
-2.2315 0.7435 -1.2507 160 160 160
-2.2330 0.7450 -1.1818 160 160 160
-2.2463 0.7498 -1.1209 160 160 160
-2.2459 0.7506 -1.0542 160 160 160
-2.2437 0.7507 -0.9882 160 160 160
-2.2524 0.7540 -0.9275 160 160 160
-2.2453 0.7526 -0.8619 160 160 160
-2.2456 0.7530 -0.8003 160 160 160
-2.2570 0.7578 -0.7429 160 160 160
-2.2670 0.7621 -0.6858 160 160 160
-2.2429 0.7544 -0.6194 160 160 160
-2.2428 0.7551 -0.5607 160 160 160
-2.2451 0.7563 -0.5035 160 160 160
-2.2870 0.7714 -0.4547 160 160 160
-2.2845 0.7603 -0.3955 160 160 160
-2.2756 0.7578 -0.3370 160 160 160
-2.2803 0.7603 -0.2806 160 160 160
-2.2950 0.7660 -0.2257 160 160 160
-2.2804 0.7616 -0.1681 160 160 160
-2.2832 0.7634 -0.1122 160 160 160
-2.2925 0.7670 -0.0561 160 160 160
-2.3099 0.7736 0.0000 160 160 160
-2.2900 0.7678 0.0561 160 160 160
-2.3146 0.7766 0.1139 160 160 160
-2.3017 0.7731 0.1698 160 160 160
-2.3161 0.7784 0.2280 160 160 160
-2.3271 0.7831 0.2872 160 160 160
-2.3311 0.7852 0.3457 160 160 160
-2.3246 0.7835 0.4031 160 160 160
-2.3315 0.7867 0.4636 160 160 160
-0.4139 0.1402 -0.2591 160 160 160
-0.4227 0.1433 -0.2508 160 160 160
-2.2374 0.7595 -1.2563 160 160 160
-2.2288 0.7574 -1.1818 160 160 160
-2.2471 0.7645 -1.1235 160 160 160
-2.2537 0.7672 -1.0599 160 160 160
-2.2429 0.7643 -0.9897 160 160 160
-2.2499 0.7677 -0.9282 160 160 160
-2.2571 0.7705 -0.8680 160 160 160
-2.2591 0.7721 -0.8067 160 160 160
-2.2634 0.7743 -0.7465 160 160 160
-2.2517 0.7708 -0.6825 160 160 160
-2.2568 0.7735 -0.6245 160 160 160
-2.2495 0.7714 -0.5635 160 160 160
-2.2759 0.7814 -0.5114 160 160 160
-2.2862 0.7858 -0.4554 160 160 160
-2.2728 0.7706 -0.3942 160 160 160
-2.2770 0.7725 -0.3379 160 160 160
-2.2817 0.7749 -0.2813 160 160 160
-2.2945 0.7802 -0.2261 160 160 160
-2.2836 0.7769 -0.1686 160 160 160
-2.2883 0.7793 -0.1127 160 160 160
-2.3013 0.7847 -0.0564 160 160 160
-2.3075 0.7872 0.0000 160 160 160
-2.2971 0.7845 0.0564 160 160 160
-2.3157 0.7918 0.1142 160 160 160
-2.3030 0.7879 0.1702 160 160 160
-2.3247 0.7962 0.2293 160 160 160
-2.3132 0.7933 0.2860 160 160 160
-2.3192 0.7957 0.3446 160 160 160
-2.3295 0.8002 0.4047 160 160 160
-2.3326 0.8022 0.4648 160 160 160
-0.4131 0.1426 -0.2591 160 160 160
-0.4335 0.1498 -0.2576 160 160 160
-2.2380 0.7741 -1.2591 160 160 160
-2.2159 0.7672 -1.1774 160 160 160
-2.2495 0.7798 -1.1269 160 160 160
-2.2526 0.7818 -1.0616 160 160 160
-2.2368 0.7767 -0.9890 160 160 160
-2.2595 0.7856 -0.9340 160 160 160
-2.2259 0.7747 -0.8578 160 160 160
-2.2707 0.7906 -0.8124 160 160 160
-2.2607 0.7881 -0.7470 160 160 160
-2.2762 0.7944 -0.6913 160 160 160
-2.2613 0.7895 -0.6270 160 160 160
-2.2505 0.7868 -0.5648 160 160 160
-2.2693 0.7942 -0.5110 160 160 160
-2.2833 0.7999 -0.4558 160 160 160
-2.2794 0.7874 -0.3962 160 160 160
-2.2780 0.7879 -0.3387 160 160 160
-2.2828 0.7899 -0.2820 160 160 160
-2.2824 0.7906 -0.2253 160 160 160
-2.2676 0.7864 -0.1678 160 160 160
-2.2895 0.7946 -0.1130 160 160 160
-2.3005 0.7992 -0.0565 160 160 160
-2.3273 0.8095 0.0000 160 160 160
-2.3001 0.8004 0.0566 160 160 160
-2.3186 0.8077 0.1145 160 160 160
-2.3096 0.8054 0.1711 160 160 160
-2.3238 0.8115 0.2297 160 160 160
-2.3235 0.8118 0.2878 160 160 160
-2.3295 0.8148 0.3469 160 160 160
-2.3358 0.8178 0.4066 160 160 160
-2.3427 0.8207 0.4677 160 160 160
-0.4155 0.1462 -0.2611 160 160 160
-0.4210 0.1482 -0.2508 160 160 160
-2.2233 0.7838 -1.2535 160 160 160
-2.2451 0.7924 -1.1953 160 160 160
-2.2482 0.7943 -1.1286 160 160 160
-2.2308 0.7886 -1.0534 160 160 160
-2.2512 0.7966 -0.9975 160 160 160
-2.2776 0.8069 -0.9435 160 160 160
-2.2461 0.7962 -0.8673 160 160 160
-2.2445 0.7964 -0.8048 160 160 160
-2.2740 0.8079 -0.7530 160 160 160
-2.2590 0.8030 -0.6874 160 160 160
-2.2694 0.8076 -0.6306 160 160 160
-2.2533 0.8024 -0.5667 160 160 160
-2.2463 0.8007 -0.5069 160 160 160
-2.2583 0.8058 -0.4517 160 160 160
-2.2711 0.7997 -0.3955 160 160 160
-2.2902 0.8069 -0.3412 160 160 160
-2.2911 0.8080 -0.2837 160 160 160
